# .PCD v0.7 - Point Cloud Data file format
VERSION 0.7
FIELDS x y z descriptor multiplicity pointId
SIZE 4 4 4 4 4 4
TYPE F F F F I I
COUNT 1 1 1 128 1 1
WIDTH 80
HEIGHT 1
VIEWPOINT 0 0 0 1 0 0 0
POINTS 80
DATA ascii
0.045490384 -0.16424277 0.572191 1 0 0 0 0 0 4 9 16 0 0 0 0 0 5 100 21 6 23 5 0 0 51 117 3 14 58 3 2 44 115 45 20 2 0 0 0 0 2 11 117 4 0 3 8 1 1 115 38 8 74 100 68 13 1 58 62 76 117 34 9 7 2 14 20 12 1 0 1 19 21 2 117 93 0 0 8 9 0 8 35 33 3 16 85 117 19 6 89 8 7 10 11 48 42 86 1 3 1 1 10 117 85 4 37 106 2 0 9 78 3 0 14 117 67 3 2 29 9 1 6 3 78 50 1 14 22 17 1 32644
0.017717134 -0.16610895 0.58512574 119 0 0 0 1 0 2 67 37 1 0 28 45 21 17 46 95 2 1 17 27 13 2 28 26 1 0 38 121 8 0 7 121 0 0 4 8 0 0 51 55 2 2 87 111 0 0 13 121 6 3 34 33 0 0 13 16 1 1 85 121 0 0 1 121 0 0 5 25 0 0 46 44 10 0 54 121 0 0 6 119 50 9 30 29 1 1 7 4 4 4 68 121 2 0 0 121 3 0 11 35 0 0 30 32 4 0 45 121 0 0 16 58 15 3 9 18 17 12 61 0 1 1 21 96 42 5 2 2 32644
0.017717134 -0.16610895 0.58512574 60 58 13 17 22 2 1 6 53 8 4 27 96 20 1 2 128 25 0 1 52 9 0 2 3 1 0 0 128 28 0 0 128 36 4 3 5 11 7 28 44 4 1 4 71 95 12 14 128 25 0 0 48 18 1 5 12 2 0 0 128 47 0 0 128 30 0 0 4 4 1 16 55 4 0 0 123 55 2 13 128 3 0 1 50 15 1 30 17 1 0 3 128 21 0 1 128 32 0 0 2 1 0 23 46 10 1 2 103 24 1 10 59 37 16 16 36 7 1 11 4 4 8 44 118 8 1 1 2 32644
-0.082534209 -0.17166977 0.64507616 8 41 131 37 7 2 1 4 15 30 131 62 4 0 0 14 25 5 29 51 22 17 23 42 2 6 9 2 10 45 28 11 25 14 21 15 89 53 13 50 131 27 25 7 30 13 6 87 41 5 3 8 24 7 14 86 8 0 0 4 26 19 13 54 16 3 0 22 131 19 7 16 131 107 7 11 50 7 1 15 49 66 30 18 11 1 3 34 24 1 1 3 5 1 5 131 1 0 0 43 131 16 16 16 39 23 1 5 27 3 13 131 36 21 5 0 0 0 15 131 19 0 0 0 0 0 5 131 3 32644
0.025257196 -0.15341733 0.58645225 37 6 0 0 10 22 2 6 157 12 0 0 2 2 19 69 85 6 0 0 34 28 62 51 55 12 0 1 45 33 31 27 53 4 0 4 110 25 0 1 157 13 1 2 4 0 0 28 127 12 2 18 73 10 0 8 73 25 1 6 37 7 1 3 55 6 0 3 157 3 0 1 157 36 1 5 3 2 2 17 99 16 5 43 31 12 4 16 65 6 2 13 21 2 1 13 40 1 0 1 126 9 0 12 157 3 0 0 7 6 3 84 68 13 2 5 66 30 6 29 32 22 15 16 15 3 1 9 1 32644
-0.09579961 -0.16339919 0.65869105 22 2 12 20 2 9 31 38 7 11 10 23 21 35 27 3 24 38 15 13 5 3 17 27 1 2 17 40 9 30 62 8 27 12 10 66 19 1 3 25 31 30 43 140 46 4 1 2 140 49 16 8 2 1 25 77 21 2 3 5 3 55 101 34 21 60 26 47 41 18 9 12 92 16 5 66 117 36 5 7 140 52 9 8 3 0 0 18 35 30 48 48 3 3 2 3 84 15 2 3 35 45 33 138 64 26 1 6 140 111 17 10 140 97 3 11 16 3 0 1 33 18 11 41 16 1 3 44 1 32644
-0.083348371 -0.15802461 0.65087241 19 10 0 3 2 4 43 46 1 6 11 10 3 7 62 14 4 8 4 2 43 75 28 6 27 34 9 9 61 50 3 1 47 110 13 19 6 1 0 2 13 34 35 71 33 1 0 1 93 72 13 4 33 50 4 7 17 26 3 3 127 106 1 1 44 127 8 4 6 3 0 0 33 45 13 16 57 9 1 11 127 16 1 1 24 13 1 36 17 3 2 3 127 86 0 4 9 127 16 1 16 72 2 0 16 127 87 2 6 3 0 2 117 127 12 0 5 4 0 6 16 22 0 0 100 115 0 1 2 32644
-0.08044178 -0.15674068 0.65040666 24 19 7 33 53 67 42 9 132 92 3 1 2 12 11 28 74 16 1 15 116 77 0 1 2 0 0 3 60 132 12 3 7 0 0 0 36 132 89 12 132 7 1 3 18 45 17 63 87 7 2 65 107 9 1 7 6 0 1 16 49 87 11 14 2 0 1 17 117 47 12 4 132 33 1 2 55 25 4 15 55 30 6 7 54 32 15 8 3 1 2 2 28 39 32 36 0 1 7 73 59 3 0 0 37 72 47 35 20 5 2 6 17 71 94 1 1 3 2 1 1 18 76 16 10 4 4 4 2 32644
-0.10703057 -0.15771486 0.6686576 4 57 106 6 1 0 0 2 11 46 104 16 14 3 1 2 41 17 8 3 17 74 67 36 2 46 4 1 17 137 32 5 7 22 25 5 5 11 32 27 58 60 46 4 7 19 20 17 137 63 5 1 6 26 22 52 29 3 0 3 117 137 17 11 0 0 0 0 0 9 137 75 24 2 0 0 3 54 137 66 137 22 7 5 6 6 43 110 30 9 8 29 137 23 1 1 8 9 3 2 7 12 55 42 17 21 1 0 4 28 80 25 15 19 18 3 16 40 24 13 2 12 25 19 27 19 5 0 2 32644
0.0050217188 -0.14487977 0.59972066 36 10 2 0 0 0 0 6 181 22 1 0 0 0 1 44 127 35 17 12 1 2 13 31 73 19 3 14 53 1 1 11 60 16 1 3 5 0 0 1 181 21 0 0 0 0 4 96 104 10 4 2 0 4 53 98 40 3 1 33 57 1 5 31 61 6 1 4 8 1 0 9 181 41 1 0 0 0 1 31 117 60 10 3 4 1 7 13 12 15 4 51 67 0 1 4 67 4 3 1 0 0 0 17 181 2 0 0 0 1 0 64 79 24 2 4 6 5 2 16 6 14 5 39 75 3 1 2 2 32644
0.030448511 -0.14077812 0.58833915 45 0 0 0 0 0 0 12 149 0 0 4 14 0 0 57 90 19 4 37 68 1 1 10 43 15 3 14 27 5 2 3 91 6 2 0 0 0 0 10 149 27 9 10 24 0 0 39 99 33 25 53 127 1 0 3 66 40 31 39 38 0 0 0 60 32 1 0 0 0 1 1 137 149 116 36 3 0 0 2 12 55 149 141 15 0 0 0 6 58 149 45 4 0 0 0 4 10 1 0 0 1 1 1 5 31 42 10 1 0 0 1 0 4 50 31 5 1 0 0 1 12 45 3 0 0 0 0 1 32644
-0.048385471 -0.14624794 0.63311392 3 4 28 13 16 16 20 11 79 35 9 2 1 1 20 27 194 30 0 0 0 0 1 18 47 1 0 0 0 1 2 3 43 21 9 14 11 5 27 21 74 47 20 68 39 5 21 17 194 108 9 5 1 0 1 15 70 5 1 1 0 0 1 2 49 64 16 11 9 3 3 6 87 12 6 30 47 48 33 48 194 22 1 2 2 3 6 71 76 2 0 0 0 0 0 3 86 22 6 3 2 5 3 25 78 23 10 40 32 21 17 23 194 54 3 6 4 1 2 8 64 2 0 0 1 0 0 2 3 32644
-0.096757889 -0.15057176 0.66446877 8 128 47 6 0 0 0 1 14 63 19 3 3 9 25 9 8 14 13 0 1 9 62 33 19 18 10 1 1 5 11 18 13 128 11 0 0 29 18 4 13 128 128 0 0 0 2 3 101 128 66 0 0 0 5 10 46 9 1 4 14 17 24 23 1 6 1 0 5 128 33 1 40 27 21 0 0 30 38 22 128 74 5 0 0 0 1 29 99 28 1 10 69 6 2 16 0 0 0 0 35 128 20 0 8 4 0 0 2 128 87 4 53 128 4 0 1 57 14 2 30 128 28 16 30 3 0 0 2 32644
-0.096757889 -0.15057176 0.66446877 0 0 0 123 118 0 0 1 22 0 0 62 95 5 3 29 123 1 0 0 2 2 4 123 31 22 10 3 5 4 4 26 0 0 0 91 123 5 2 1 61 5 0 12 41 17 24 26 123 17 0 0 2 4 7 69 24 2 3 8 48 35 7 11 14 0 0 46 121 4 9 39 20 0 0 0 6 7 123 123 81 3 0 0 2 5 99 123 19 1 0 2 17 40 19 16 60 2 1 32 23 0 2 115 40 5 22 13 0 0 57 123 0 3 44 27 13 12 66 25 10 3 5 9 24 8 6 14 2 32644
-0.044110272 -0.12764771 0.63679063 1 1 2 9 42 35 2 0 16 18 1 9 41 26 7 1 131 131 0 0 5 7 6 5 92 83 0 0 0 1 0 0 5 3 5 42 72 15 0 1 37 5 4 7 14 26 57 34 131 99 3 7 12 21 63 27 131 131 1 1 0 0 0 1 28 6 5 24 131 31 0 5 131 9 4 21 17 3 5 25 23 50 8 57 67 6 7 5 131 131 4 4 6 1 1 4 13 2 2 9 88 26 9 19 56 2 2 43 21 3 5 31 24 6 5 57 25 2 3 13 131 61 1 1 2 1 4 33 2 32644
-0.12037583 -0.13092813 0.68815589 49 23 0 0 0 0 0 15 131 86 0 0 0 0 0 15 168 38 0 0 0 0 0 4 35 2 0 3 4 0 0 0 41 11 0 0 0 0 5 28 168 40 0 0 0 0 8 30 168 36 0 0 0 0 0 10 47 2 0 1 2 0 0 0 31 5 10 14 1 0 7 69 134 48 14 4 0 0 11 56 168 17 0 0 0 0 0 40 44 1 0 1 2 0 0 3 9 6 14 42 40 6 1 12 101 155 31 18 12 0 0 0 168 89 0 0 0 0 0 2 34 4 0 2 3 0 0 1 1 32644
-0.10489684 -0.1288248 0.68096709 1 0 1 17 102 19 2 2 27 22 1 2 3 4 2 10 112 41 0 0 0 3 7 84 27 9 5 41 34 17 10 21 0 0 0 2 87 82 10 0 83 9 1 4 32 40 6 10 137 17 3 7 10 11 15 134 16 4 3 49 137 56 17 27 0 0 0 3 37 72 6 0 76 11 0 0 88 81 3 2 137 112 57 71 8 4 1 4 9 12 82 137 65 2 0 1 0 0 0 1 24 57 24 0 7 7 0 1 100 63 1 0 17 47 43 57 35 14 0 0 1 2 32 102 33 14 15 8 3 32644
-0.047551237 -0.11993424 0.64214236 2 6 45 125 67 59 13 1 48 65 43 36 17 4 1 2 28 25 9 8 12 20 3 1 4 0 1 2 7 29 48 9 32 16 50 125 115 37 0 2 125 32 16 15 2 2 0 17 53 23 23 32 5 0 0 11 32 15 6 2 1 6 18 32 28 1 2 16 125 87 5 7 125 9 0 6 17 15 3 19 48 64 24 68 91 17 1 4 89 125 9 6 5 6 17 17 7 2 2 16 78 69 10 5 125 6 1 2 14 18 5 30 35 15 1 5 123 103 3 6 64 125 1 2 23 27 5 10 1 32644
-0.02949103 -0.11765146 0.63239902 36 13 0 0 2 14 16 38 155 23 0 0 0 1 2 43 103 1 0 0 0 0 0 15 1 0 0 17 67 0 0 0 29 7 0 0 71 58 18 13 155 29 0 0 13 5 0 8 139 2 0 0 3 0 0 5 0 0 0 22 126 0 0 0 27 4 0 0 73 98 9 12 155 3 0 0 13 26 9 55 133 2 0 2 5 0 0 7 0 0 0 26 155 0 0 0 37 14 6 13 13 46 8 7 155 13 3 5 4 17 10 51 80 1 0 2 7 0 0 8 0 0 0 18 145 0 0 0 2 32644
-0.038342427 -0.11582587 0.63778073 19 14 3 17 46 4 1 6 71 111 21 0 0 1 3 14 5 129 89 0 0 1 3 0 0 129 40 0 0 0 0 0 27 25 3 16 86 1 0 0 124 47 8 1 1 3 26 40 12 75 32 0 0 69 95 20 18 129 39 0 0 21 47 11 16 8 0 7 77 16 29 42 129 23 0 1 4 4 40 129 43 14 23 12 6 31 63 34 12 40 22 1 2 21 112 19 32 22 4 1 9 18 30 64 29 52 16 15 21 3 38 113 1 14 45 80 74 3 5 8 1 93 97 14 5 1 1 1 3 32644
-0.070272572 0.051233724 0.73455548 2 1 0 0 23 52 7 2 80 14 5 2 13 41 17 44 130 48 3 0 1 3 1 30 20 5 0 0 111 74 2 5 15 3 0 3 35 24 5 4 22 48 43 63 96 24 4 8 130 130 31 10 3 2 1 18 74 35 0 0 87 51 1 2 38 11 0 1 25 27 8 5 16 4 3 14 103 130 31 28 130 45 3 3 5 14 19 82 130 22 0 0 45 21 1 4 83 25 0 0 5 7 2 5 3 2 1 3 85 45 5 3 130 68 3 5 23 5 2 4 130 35 0 0 13 12 1 4 1 32644
-0.026990324 0.045303915 0.70028687 2 0 0 2 44 22 3 4 138 1 0 0 9 6 1 15 202 2 0 0 0 0 0 11 42 1 0 0 0 0 1 3 2 5 7 20 40 15 1 0 164 8 0 2 13 6 2 7 202 11 0 0 0 0 0 8 55 1 0 0 0 0 0 3 1 1 4 9 9 26 8 2 147 1 0 1 3 8 8 16 202 6 0 0 0 0 0 12 58 2 0 0 0 0 0 2 3 0 0 3 28 16 3 3 112 0 0 1 6 4 2 12 202 1 0 0 0 0 0 10 48 1 0 1 1 0 0 1 2 32644
-0.018404987 0.04680692 0.69379568 5 0 0 0 0 3 14 21 163 15 0 0 0 1 3 9 198 50 0 0 0 0 0 0 33 7 0 0 0 0 0 1 1 0 0 1 24 27 28 28 155 9 0 0 9 10 6 9 198 43 0 0 0 0 0 1 63 5 0 0 0 0 0 3 6 1 0 2 48 36 3 5 117 8 0 0 17 14 2 9 198 46 0 0 0 0 0 2 82 9 0 0 0 0 0 2 4 8 8 17 23 10 1 0 60 8 0 5 16 8 2 3 198 44 0 0 0 0 0 1 84 8 0 0 0 0 0 1 1 32644
0.088301957 0.036835033 0.69235098 1 1 2 65 41 3 0 0 0 0 0 16 102 33 0 0 113 18 1 3 42 22 3 19 121 28 0 1 4 1 1 6 19 28 11 34 40 6 1 3 7 5 3 64 129 8 0 1 129 11 3 22 25 3 1 27 126 31 1 3 3 0 0 8 5 129 62 30 57 38 0 0 13 59 32 33 129 11 3 7 129 15 0 4 19 5 4 52 92 15 0 2 3 1 2 37 0 55 13 2 24 129 32 0 18 129 24 6 7 81 13 10 68 69 0 0 2 2 7 109 20 10 0 0 2 15 22 73 1 32644
-0.0015582121 0.051383458 0.68684542 8 1 0 0 26 18 0 0 163 10 0 0 15 21 2 11 198 29 0 0 0 0 0 5 32 2 0 0 0 0 2 4 9 8 7 7 15 7 0 0 168 5 1 2 10 12 2 11 198 24 0 0 0 0 0 5 53 3 0 0 0 1 1 3 8 16 13 3 1 0 0 2 144 12 2 1 1 0 0 2 198 44 0 0 0 0 0 0 67 7 0 0 0 2 1 2 14 1 0 0 0 0 0 10 85 7 0 0 0 0 1 9 198 45 0 0 0 0 0 1 72 10 0 0 0 1 0 1 1 32644
0.039922353 0.079697795 0.67424482 53 127 39 22 4 0 0 1 34 128 25 4 2 5 0 0 15 16 0 0 8 80 3 1 16 51 0 0 7 62 2 0 77 32 18 41 72 7 10 20 128 128 22 20 26 0 1 30 87 41 5 0 2 17 1 2 3 8 0 0 11 92 2 0 16 0 0 8 86 93 68 49 128 31 33 7 19 10 26 123 37 128 73 2 0 0 0 2 12 67 1 0 2 26 2 0 1 0 0 0 5 73 68 8 4 4 17 8 19 102 30 15 5 108 44 7 13 35 1 0 33 128 4 0 0 2 0 0 1 32644
0.053867895 0.078492127 0.66577578 15 93 104 35 23 8 0 0 62 122 32 2 4 3 0 0 12 8 0 0 93 17 0 0 0 0 0 0 101 18 1 0 55 34 5 8 54 98 19 19 122 112 2 1 14 31 8 29 73 12 0 2 120 7 0 2 0 0 0 0 122 18 1 0 8 0 0 0 11 122 122 21 122 7 1 0 5 46 116 103 43 10 4 14 92 5 5 8 0 0 0 2 110 11 1 0 0 8 8 1 2 45 45 0 1 1 1 0 1 55 68 6 1 1 0 2 66 42 19 2 0 0 1 10 74 15 0 0 2 32644
0.081403702 -0.19662179 0.60098553 0 0 1 8 36 10 2 1 0 0 1 9 3 2 19 11 0 0 1 11 16 24 36 7 0 0 1 20 27 9 1 0 13 3 1 4 48 34 1 12 61 1 0 1 2 9 68 134 5 0 0 0 96 125 103 46 0 0 0 7 87 70 3 0 57 20 0 1 56 19 0 4 134 29 0 0 5 9 9 46 67 6 0 0 50 134 73 27 0 1 2 8 134 134 14 0 76 18 0 2 42 5 0 4 134 94 1 0 4 1 0 13 70 102 19 6 37 28 9 10 1 4 6 9 134 98 1 0 3 32644
0.044101194 -0.17211214 0.56997287 10 83 28 0 1 2 2 0 0 31 124 24 1 4 24 25 0 0 42 78 18 5 67 28 1 5 6 8 7 29 36 3 14 9 8 0 0 0 0 5 107 6 23 2 1 1 35 124 22 3 5 6 14 25 124 116 8 2 0 1 33 124 80 5 29 13 1 0 0 0 0 1 124 110 1 1 4 0 2 32 77 62 10 11 46 15 10 22 34 4 9 31 119 64 6 11 17 14 0 0 0 0 0 1 51 124 8 0 0 0 0 1 15 124 124 10 3 3 1 2 5 4 105 114 28 1 0 3 2 32644
-0.015450209 -0.17034094 0.60314763 17 0 9 3 2 20 7 15 74 0 4 1 1 5 58 133 8 0 1 1 20 110 133 40 1 0 1 0 4 49 133 28 54 1 0 2 68 56 11 9 133 11 1 4 13 3 5 65 64 4 2 21 108 32 19 36 62 2 1 24 57 31 58 62 50 8 0 24 133 6 1 1 133 66 9 15 9 3 1 12 52 52 24 65 41 10 1 7 49 45 20 71 74 3 0 6 39 1 0 14 99 3 0 4 133 14 1 1 8 9 4 21 29 20 5 7 53 52 9 20 14 22 10 13 35 35 20 43 3 32644
-0.067307375 -0.17274778 0.63379908 0 0 1 40 118 19 2 0 0 8 35 45 118 21 26 11 53 118 69 3 5 10 52 59 53 118 96 17 3 0 0 13 2 0 0 96 118 0 0 0 65 4 1 42 80 8 33 74 26 13 2 4 32 48 62 52 21 38 25 14 10 8 3 13 3 5 2 91 118 0 0 0 116 107 15 39 42 1 1 10 19 28 28 86 45 10 2 5 21 54 58 34 8 3 2 7 0 1 1 44 118 16 5 0 28 94 7 11 31 31 14 1 12 68 17 35 58 5 1 0 44 47 20 38 58 7 10 11 3 32644
-0.047334906 -0.10518415 0.6501652 1 24 39 3 2 19 5 0 4 84 87 1 1 10 24 7 48 132 60 2 1 2 10 17 31 40 23 25 10 13 4 8 16 102 64 1 1 5 3 2 94 45 8 2 2 4 64 53 65 33 14 24 9 3 75 70 68 63 8 3 3 18 17 17 64 29 5 0 1 7 6 9 132 29 1 9 23 8 6 23 50 53 33 85 102 62 32 11 53 132 52 10 2 7 10 3 41 0 0 0 1 36 67 14 132 8 0 0 5 11 24 44 73 7 4 42 47 132 110 25 14 38 38 59 52 55 30 3 3 32644
-0.045635138 -0.085788764 0.65434825 3 10 64 78 33 7 5 4 18 20 50 15 1 0 3 24 50 25 12 3 3 1 23 109 18 23 6 1 3 20 59 103 39 15 21 50 40 26 35 26 84 11 5 2 5 4 20 103 41 70 58 20 45 17 10 48 15 117 105 10 3 11 8 12 55 6 2 4 8 34 117 46 61 15 6 7 6 72 115 31 10 12 13 48 77 47 10 2 8 47 58 21 12 5 1 1 117 62 1 0 0 6 24 24 64 29 3 6 15 117 117 20 0 0 5 31 117 117 36 0 0 7 63 31 40 8 0 0 1 32644
-0.045635138 -0.085788764 0.65434825 6 1 0 0 0 18 65 17 120 96 4 0 0 4 16 57 53 120 64 12 38 10 5 18 0 19 24 37 120 36 1 0 8 4 1 1 21 104 73 12 82 28 3 3 12 17 19 54 10 120 80 26 51 9 8 9 2 60 112 57 76 4 2 2 4 14 24 32 32 120 43 4 41 8 21 69 40 67 38 17 4 5 37 108 76 7 4 1 42 47 55 31 26 8 13 34 3 8 86 97 17 9 1 1 3 1 23 81 34 24 14 5 2 0 6 22 13 22 52 12 33 6 9 8 6 11 52 117 1 32644
-0.086231321 -0.080027416 0.68710577 81 14 2 2 15 4 4 3 21 2 1 11 121 48 5 5 121 16 0 4 88 38 6 20 20 1 1 1 69 50 31 79 121 30 0 15 36 3 3 4 28 9 2 121 121 16 6 7 121 35 3 28 66 16 3 28 67 7 1 6 50 26 6 33 72 101 9 17 27 4 2 4 19 28 16 48 116 84 26 32 113 23 5 11 40 23 25 121 30 44 10 26 86 11 1 8 18 26 11 3 1 6 20 43 12 26 23 26 15 43 28 10 30 62 35 56 19 6 12 14 57 23 27 100 49 1 0 3 3 32644
-0.086231321 -0.080027416 0.68710577 77 4 3 2 5 16 18 91 18 17 41 15 13 44 26 24 16 23 19 23 13 44 31 25 15 2 2 18 12 60 18 18 115 37 1 6 18 33 26 42 21 37 29 81 119 51 17 11 119 119 29 17 13 34 17 21 42 16 0 0 42 119 10 7 40 48 2 4 31 47 11 4 34 41 5 19 119 119 2 4 119 64 5 5 33 48 3 20 37 18 6 9 47 49 0 4 19 22 8 40 79 12 4 12 33 108 12 20 67 60 0 0 62 117 5 10 76 63 0 1 23 105 16 3 6 10 1 4 3 32644
-0.091581918 -0.06966345 0.69307268 1 9 10 2 5 47 28 1 15 83 36 2 3 5 8 12 4 92 100 2 2 4 11 5 4 77 113 2 1 1 4 9 1 0 1 2 57 113 28 4 59 5 3 1 25 66 49 106 12 13 19 7 66 103 57 30 2 20 65 7 14 9 43 61 2 1 1 3 107 72 4 3 113 28 0 2 92 52 5 21 62 12 0 0 113 108 17 33 36 0 2 4 13 20 55 113 7 2 0 34 102 9 5 3 110 41 4 35 102 5 0 2 94 23 0 0 42 38 3 10 57 5 3 12 24 10 3 23 2 32644
-0.094435871 -0.064647816 0.69857049 1 2 3 85 109 11 3 6 12 6 2 48 107 11 0 2 21 6 1 2 0 0 6 64 1 0 2 6 0 0 30 118 0 0 7 118 39 13 39 17 26 6 2 45 31 62 54 10 118 18 1 2 1 5 5 109 28 8 20 88 24 4 8 88 0 0 9 72 13 14 79 107 15 4 8 98 87 73 44 11 118 35 3 6 10 8 3 13 59 10 3 26 43 74 33 16 0 0 8 108 18 20 40 18 6 10 11 90 22 81 43 1 118 61 3 3 1 16 4 4 92 32 7 8 1 18 22 9 3 32644
-0.063932538 -0.034881625 0.6899212 57 0 0 0 13 55 35 11 1 0 0 10 64 122 111 2 10 0 0 3 26 84 122 55 1 0 0 0 3 122 122 13 100 6 0 2 24 6 6 6 22 1 0 54 122 18 6 4 122 6 2 16 38 9 25 65 16 3 4 5 23 122 34 15 89 27 2 3 26 4 0 0 24 5 1 8 122 73 1 3 122 8 1 2 28 27 5 14 24 2 2 32 18 14 12 8 26 97 65 5 4 0 0 0 4 32 52 9 51 42 2 2 87 17 9 8 19 31 7 15 18 8 4 122 54 8 2 1 2 32644
-0.063932538 -0.034881625 0.6899212 45 6 2 2 15 6 4 121 18 26 6 17 91 15 8 9 54 40 3 3 4 33 48 9 3 0 0 0 25 105 65 5 18 16 11 8 21 2 3 29 28 23 5 19 121 2 1 2 121 64 1 4 25 4 1 9 27 3 0 0 90 24 2 4 27 121 38 18 16 2 4 4 40 9 27 72 121 4 2 19 121 15 5 4 21 1 0 63 24 5 4 7 104 3 0 2 3 120 121 13 1 0 0 0 32 95 121 47 8 0 0 4 65 121 100 2 1 0 0 12 12 47 26 15 61 0 0 0 1 32644
0.090625234 -0.032034665 0.67220604 3 0 0 18 159 0 0 0 159 3 0 8 106 0 0 2 55 4 2 14 7 0 0 1 0 0 5 14 2 0 0 0 5 0 0 20 159 1 0 0 159 2 0 9 123 0 0 9 60 2 0 4 22 3 0 6 0 0 0 3 7 1 1 3 7 0 0 22 159 0 0 0 159 10 0 7 111 0 0 3 53 9 2 4 12 4 2 2 4 2 0 1 6 5 2 4 6 0 0 16 159 0 0 0 159 4 0 4 76 0 0 3 52 7 0 0 3 2 1 2 4 2 0 1 14 4 1 1 2 32644
-0.066080056 -0.004206297 0.70544916 38 32 25 103 72 30 3 2 62 74 34 78 76 42 11 28 67 54 70 49 3 4 29 77 29 1 6 20 5 18 43 32 78 42 26 51 17 38 48 37 73 17 5 23 61 124 63 32 124 71 3 2 9 17 21 83 23 8 1 2 31 40 21 24 124 29 1 1 8 14 5 14 42 10 2 8 107 124 15 19 124 19 0 0 13 30 13 83 38 3 0 0 13 36 9 37 124 48 2 1 1 0 0 4 31 16 5 12 36 25 31 19 86 0 0 0 7 10 20 79 29 1 0 0 4 18 8 21 1 32644
-0.049596027 6.9278991e-05 0.69333661 6 19 34 19 7 1 15 10 3 7 32 75 58 36 27 5 38 68 15 22 25 17 15 49 8 19 17 24 43 22 22 23 38 21 7 17 13 2 29 46 17 8 8 126 106 39 42 17 126 24 6 31 24 17 20 92 21 4 1 23 117 24 26 33 80 31 6 25 36 6 3 25 48 7 4 94 126 7 1 10 126 14 3 21 27 0 0 40 23 4 2 115 111 0 0 3 85 26 12 28 40 5 2 15 60 2 4 58 126 6 1 12 126 6 2 13 37 2 1 37 5 1 1 40 126 4 0 2 3 32644
-0.049596027 6.9278991e-05 0.69333661 41 37 2 2 71 50 2 4 86 44 0 0 102 67 1 8 102 87 6 6 39 29 4 10 42 15 1 3 54 44 4 8 120 45 0 1 49 28 1 10 49 24 0 0 120 120 2 5 120 58 2 5 16 26 7 23 28 5 2 23 35 70 12 11 120 38 2 3 10 16 2 19 26 9 5 38 120 120 5 11 120 64 45 32 24 24 5 33 17 8 26 66 14 6 20 30 69 96 16 11 3 3 0 1 10 20 20 86 56 31 29 10 69 39 17 14 18 42 25 23 55 26 5 2 5 11 17 37 2 32644
-0.05105219 0.01231793 0.70208067 6 4 29 22 11 4 16 7 5 4 13 45 47 13 15 5 43 27 9 15 17 4 31 70 9 7 5 86 99 29 37 20 18 7 3 9 26 12 29 22 15 11 6 78 134 24 20 5 128 77 12 37 41 7 3 27 27 11 5 75 135 18 2 6 47 3 0 11 48 13 3 21 30 11 2 65 135 30 2 4 135 63 10 28 56 12 3 30 35 7 6 58 135 29 3 7 29 1 0 8 57 18 3 19 12 13 2 58 135 19 1 4 69 97 41 44 29 7 16 28 25 10 24 114 63 37 15 4 2 32644
0.098384246 0.0024976293 0.69166338 7 0 0 18 113 1 1 1 155 0 0 5 50 0 0 52 105 0 0 0 0 0 25 44 0 0 0 0 0 1 38 3 20 1 3 79 81 11 1 2 155 20 2 13 28 3 0 53 123 16 41 4 0 1 22 34 0 0 54 5 0 1 31 1 18 1 0 10 93 36 7 8 155 96 12 1 32 7 0 7 59 61 155 19 0 1 2 3 0 0 155 22 1 2 5 0 14 1 2 22 93 2 1 4 155 6 1 4 28 1 3 50 41 4 6 2 0 16 16 22 0 0 5 2 1 8 12 0 1 32644
-0.012901672 0.015450453 0.67689365 32 104 11 11 10 33 10 2 2 11 11 54 118 69 23 1 16 118 15 11 35 24 13 1 19 118 12 2 12 29 0 0 25 49 55 50 43 30 17 4 79 19 49 61 36 31 47 49 18 22 0 1 11 118 102 23 65 89 0 0 1 45 23 8 15 4 7 63 116 17 1 2 118 118 12 5 5 8 6 21 25 104 19 3 14 118 24 8 8 21 1 0 13 118 37 2 1 1 0 7 37 50 2 0 14 72 2 0 2 24 6 1 58 118 6 0 0 3 2 1 20 35 5 6 55 44 8 1 1 32644
-0.027062133 0.01812646 0.68632263 1 4 25 88 79 16 3 0 70 22 1 29 77 14 0 7 123 70 1 2 10 4 4 22 6 8 2 7 123 33 2 2 0 0 8 19 30 98 67 19 55 14 0 3 78 123 6 4 123 43 1 1 5 8 2 12 24 6 3 12 99 85 2 3 9 10 19 21 26 59 17 16 18 3 10 55 101 123 8 10 123 50 46 15 7 18 7 23 15 12 57 116 22 15 1 0 1 12 72 87 5 0 0 0 1 3 37 123 29 4 1 1 15 47 79 26 4 2 4 50 7 7 36 33 13 34 39 46 3 32644
-0.0476119 0.055113696 0.71754104 51 10 1 4 2 0 0 1 13 10 22 91 40 0 0 1 137 56 29 27 6 0 0 10 39 4 0 0 106 25 1 7 93 18 0 6 19 3 2 2 40 6 2 70 137 14 2 3 137 11 2 14 18 2 1 23 60 1 0 0 127 24 1 9 137 18 0 1 15 10 2 4 22 2 0 11 123 94 13 14 137 38 0 3 12 16 10 31 70 15 0 0 86 31 0 2 137 25 0 1 7 4 0 2 5 2 1 13 86 32 2 2 137 18 1 5 16 9 2 14 85 6 0 0 48 15 1 5 1 32644
-0.007626967 0.050840262 0.68974155 13 19 11 4 3 0 0 0 93 2 4 3 6 4 1 13 211 0 0 0 0 0 0 39 56 0 0 0 0 1 1 7 17 7 2 0 0 0 0 12 144 3 1 0 0 0 1 15 211 2 0 0 0 0 0 20 70 0 0 0 0 2 1 4 9 0 0 0 0 1 9 28 138 0 0 0 0 1 3 25 211 2 0 0 0 0 0 19 71 2 0 0 0 1 0 2 1 0 0 1 10 17 29 27 103 0 0 0 5 9 8 15 211 1 0 0 0 0 0 21 54 1 0 0 0 0 0 3 3 32644
-0.0063830144 -0.11723565 0.61856914 2 6 28 39 56 4 1 3 19 72 17 17 23 3 3 6 16 216 20 3 0 0 0 0 27 216 3 0 0 7 1 0 30 17 28 17 10 2 2 11 15 17 19 51 120 13 5 11 134 147 22 17 14 3 2 11 67 216 0 0 0 0 0 0 45 6 1 1 10 8 5 22 15 3 1 6 85 67 39 16 95 10 1 1 9 20 42 74 26 84 4 0 0 0 0 3 5 1 0 0 2 3 10 22 2 0 0 1 4 11 17 12 4 0 0 0 2 5 14 13 2 8 1 0 1 1 1 2 2 32644
-0.0648688 -0.079331942 0.67191255 3 3 1 6 34 19 6 7 49 11 2 4 10 6 14 84 8 3 3 15 31 14 114 114 0 0 12 14 4 3 114 114 14 3 0 13 47 19 12 15 114 20 5 2 2 5 12 114 23 6 26 36 19 36 52 105 1 0 44 39 6 6 38 29 18 9 1 7 17 33 46 6 114 104 40 5 0 16 19 46 18 30 100 61 4 8 53 93 1 1 34 35 3 5 77 82 68 37 2 1 2 26 29 13 30 18 14 13 6 35 36 97 16 19 114 44 5 2 31 101 1 6 114 86 4 3 27 21 3 32644
-0.073548734 -0.052919995 0.68927002 5 73 35 1 1 0 0 0 110 122 35 6 5 0 0 5 50 63 15 49 39 0 0 1 26 49 16 61 32 0 0 1 18 11 10 3 3 3 5 4 122 43 7 7 16 0 0 35 61 51 27 69 122 0 0 6 17 85 92 40 30 0 0 1 14 8 2 0 1 113 87 17 88 122 52 9 3 48 31 3 10 47 99 92 64 3 3 0 54 17 32 15 12 0 0 3 26 0 0 1 15 95 58 19 2 8 9 1 8 122 108 6 1 13 26 3 2 104 102 3 39 28 5 1 5 24 5 1 3 32644
-0.015942575 0.0092177745 0.67637163 104 3 0 9 38 27 4 26 51 3 1 18 121 30 6 15 39 24 4 7 62 17 10 71 8 8 12 36 31 21 6 17 46 48 40 44 27 16 4 22 32 26 41 121 88 23 4 9 121 18 6 26 39 25 14 59 10 1 4 41 121 35 7 10 76 16 15 18 9 11 14 90 33 7 8 26 121 97 22 33 121 16 3 15 46 14 3 30 15 4 1 41 121 3 0 1 121 4 0 1 12 3 1 30 31 3 0 6 121 43 4 16 82 5 1 5 47 19 5 53 3 1 1 17 121 28 1 3 2 32644
-0.011603342 0.010142716 0.67517108 116 3 0 0 1 1 4 48 80 5 3 32 41 27 41 41 47 1 1 16 42 38 30 88 17 1 1 28 39 17 42 76 116 1 0 3 7 1 1 116 56 9 8 116 66 1 1 27 116 15 7 42 20 1 0 32 35 2 2 93 98 1 0 11 116 11 4 17 35 2 2 90 35 7 4 87 116 7 11 25 116 51 28 39 16 7 16 35 12 8 23 116 63 6 7 8 34 19 21 51 13 1 8 17 65 11 16 49 40 6 22 59 35 6 5 23 32 42 58 66 16 3 5 24 18 31 60 44 3 32644
-0.049987264 0.019069498 0.70526743 37 28 22 69 101 18 1 3 133 44 2 9 16 4 7 52 95 29 3 8 4 5 17 42 93 41 0 0 0 3 5 18 47 15 12 25 38 104 41 54 133 37 1 4 13 30 6 43 107 49 7 21 26 0 0 5 133 86 1 1 1 0 0 3 87 23 2 10 108 57 11 24 133 28 2 2 46 24 4 32 85 32 8 19 29 0 0 3 122 106 1 1 2 0 0 0 77 9 4 14 39 44 8 30 79 17 7 6 21 27 7 30 34 18 23 11 4 1 9 18 113 26 1 1 0 0 1 4 3 32644
-0.061131071 -0.21091825 0.61608875 47 12 0 0 149 18 0 0 151 106 8 1 3 0 0 0 27 33 63 37 2 0 0 0 0 0 71 40 1 1 1 0 35 9 0 0 151 26 0 0 151 67 4 0 11 1 1 7 58 18 27 16 4 20 19 9 0 0 19 17 2 21 31 0 24 2 0 0 151 82 0 1 151 29 0 0 14 13 1 5 104 10 0 1 12 11 7 4 0 0 0 1 15 13 7 0 6 0 0 0 144 89 0 1 151 21 0 0 26 24 1 3 100 15 0 2 12 0 0 0 0 0 0 3 17 0 0 0 1 32644
-0.050191645 -0.20887123 0.61310828 14 0 0 25 154 0 0 1 154 0 0 3 20 0 0 52 98 0 0 2 3 9 21 34 0 0 0 3 3 27 38 0 31 1 0 37 154 0 0 3 154 12 1 3 14 0 0 45 101 12 21 15 5 0 0 12 0 0 25 14 3 0 0 0 46 1 0 37 154 0 0 3 154 40 7 2 8 0 1 26 41 31 97 19 2 7 3 4 0 0 117 14 0 5 2 0 48 0 0 11 142 10 0 11 154 1 0 1 3 2 2 60 18 1 5 4 6 28 10 10 0 0 10 4 2 25 15 0 1 32644
-0.11972098 -0.1895922 0.66247135 0 0 0 0 0 2 125 170 69 23 1 0 1 2 36 143 170 37 0 0 0 0 0 21 37 8 3 0 0 0 0 0 0 0 0 0 3 20 72 78 81 19 2 1 36 56 18 9 170 32 0 0 2 1 0 8 51 5 3 0 0 0 0 1 2 0 2 15 15 20 32 56 71 5 1 30 82 73 9 19 170 8 0 1 3 5 1 43 41 4 7 2 0 0 0 1 1 0 6 60 24 11 2 6 70 10 3 82 27 13 9 10 170 14 1 3 1 0 1 15 24 3 3 6 0 0 0 0 3 32644
-0.012832846 -0.16593532 0.60360807 0 0 121 25 0 1 47 20 13 2 112 19 2 24 48 28 57 4 60 9 1 15 67 108 2 0 35 5 7 65 133 11 14 0 0 1 9 8 133 81 38 3 1 13 120 68 78 28 133 41 8 2 15 10 17 46 11 20 20 30 58 29 48 10 50 1 0 7 44 4 14 26 44 2 0 33 133 6 4 4 133 13 4 3 22 2 7 32 13 7 11 13 63 31 22 18 12 1 2 8 45 3 2 16 46 1 0 21 133 2 0 5 133 8 3 5 12 0 1 34 13 10 8 15 64 6 4 11 1 32644
-0.046523243 -0.024998119 0.67996246 110 20 1 5 17 0 0 1 110 46 19 4 1 1 5 5 4 19 30 14 8 7 38 17 0 1 2 39 110 27 11 2 109 24 2 5 21 2 0 3 103 66 105 43 2 5 8 9 68 106 102 18 7 4 4 24 14 10 13 37 110 58 0 2 79 15 1 3 27 9 2 30 72 23 14 20 4 12 110 85 52 13 37 103 13 3 54 73 9 4 107 110 33 9 0 1 42 52 5 13 23 0 0 4 46 100 108 37 2 0 13 14 0 2 61 110 11 0 7 1 3 2 26 44 2 0 0 1 1 32644
-0.046523243 -0.024998119 0.67996246 20 2 0 1 4 42 92 24 0 3 14 12 11 51 114 37 0 3 10 4 114 97 48 13 0 1 3 3 49 38 0 0 42 12 11 24 28 12 3 5 6 27 67 114 101 16 4 3 54 76 54 14 55 93 6 5 6 1 0 1 69 114 4 0 3 9 114 27 15 2 0 1 10 17 114 61 101 34 2 6 114 87 62 21 17 21 5 21 13 11 36 88 114 46 2 1 0 5 91 6 1 11 22 0 0 11 98 14 1 7 23 3 4 47 88 14 1 7 26 4 0 5 51 67 9 11 13 0 2 32644
-0.049857583 -0.0065890374 0.69234383 0 4 16 52 28 0 0 0 17 48 14 38 31 1 0 2 58 13 3 34 96 3 0 3 126 59 39 14 5 0 0 9 4 4 11 34 51 16 7 7 53 24 6 20 43 19 9 54 65 11 2 17 116 41 7 27 126 44 26 21 10 14 62 100 23 12 3 41 80 3 1 4 126 17 3 37 57 3 1 15 63 40 5 81 126 5 1 9 126 126 91 19 6 2 30 57 23 16 10 41 48 5 1 3 118 10 2 18 56 2 0 7 8 12 2 21 126 6 0 1 10 73 59 5 7 1 1 2 3 32644
0.098895408 0.018264335 0.70380819 13 3 1 15 47 16 1 1 165 79 10 2 18 5 2 18 32 35 84 18 1 7 10 10 0 0 64 23 1 7 3 0 19 2 3 19 55 4 0 1 165 5 0 5 22 3 14 97 59 1 1 0 0 86 96 56 0 0 0 0 2 87 34 0 24 3 0 3 54 23 2 3 165 33 0 1 27 7 2 14 149 12 0 0 1 53 38 15 0 0 0 0 1 137 47 0 15 7 19 49 28 3 0 1 165 44 2 17 17 1 0 0 150 20 2 1 0 1 0 0 0 0 3 2 1 18 3 0 1 32644
0.018256215 0.071238719 0.68233603 121 134 33 0 7 1 0 0 30 6 0 1 96 17 1 6 121 1 0 0 16 5 1 27 41 0 0 0 11 3 1 8 180 49 2 0 7 1 0 0 71 3 0 5 108 11 0 4 156 1 0 1 18 4 0 15 51 0 0 0 14 4 0 7 180 14 0 0 4 2 0 1 81 2 0 0 85 38 2 4 152 2 0 0 17 10 2 15 51 0 0 0 12 4 0 9 180 7 0 0 1 1 0 3 69 1 0 0 24 31 19 14 35 0 0 0 7 11 23 65 33 0 0 0 11 5 2 9 1 32644
0.038280208 0.082875304 0.6779629 7 25 29 50 24 1 4 60 83 121 24 9 5 4 4 14 99 33 0 0 10 7 2 2 59 14 0 0 2 10 1 1 12 16 10 34 121 104 10 12 121 97 8 6 14 24 11 55 121 28 0 0 15 19 1 12 110 27 0 0 2 7 1 1 3 1 0 0 44 121 16 9 121 66 0 1 31 58 18 48 121 48 0 0 21 18 1 6 121 31 0 0 4 5 0 1 13 70 28 1 40 38 1 1 96 34 0 1 88 61 1 4 121 33 0 0 11 12 1 3 92 19 0 0 6 6 1 1 2 32644
-0.073614888 -0.13767758 0.65457672 23 8 17 21 27 10 23 23 2 20 54 67 129 14 1 1 1 129 129 18 45 5 9 8 0 129 129 1 0 17 10 2 1 51 104 31 65 18 4 1 6 4 30 110 129 21 1 2 68 15 13 28 43 23 46 82 6 51 43 12 23 112 47 17 1 27 58 14 23 78 65 6 7 9 21 21 56 88 48 10 76 32 19 17 15 47 23 24 17 12 37 64 28 38 10 12 0 2 7 46 42 73 25 0 4 22 22 61 34 28 12 1 5 56 40 56 29 19 8 4 15 33 18 20 11 30 9 7 2 32644
-0.023990333 -0.21381567 0.60478967 6 0 1 30 149 22 3 3 87 3 0 4 9 3 2 3 186 35 0 0 0 0 0 3 57 42 2 1 7 2 0 1 0 0 1 38 91 8 1 0 108 7 1 16 25 2 1 1 186 25 0 1 0 0 0 8 84 65 0 0 1 0 0 1 0 0 0 21 89 0 0 0 119 8 1 17 29 0 0 1 186 14 0 0 0 0 0 13 94 20 0 0 0 0 0 3 0 0 0 6 77 0 0 0 86 4 0 1 23 6 0 4 186 9 0 0 1 1 0 11 70 8 0 0 3 1 0 3 2 32644
0.014235999 -0.17939697 0.58483058 59 50 1 13 42 5 0 5 131 131 11 8 10 2 0 12 8 25 14 55 131 26 0 1 2 1 0 6 87 11 0 0 41 12 0 6 54 19 1 7 131 73 6 6 7 2 1 32 30 15 8 48 131 11 1 8 1 1 0 10 106 2 0 0 29 15 1 11 62 4 0 1 131 98 6 5 3 1 2 20 30 23 8 36 106 75 33 22 1 1 0 7 81 62 3 0 15 5 1 1 62 10 0 1 131 14 0 0 1 0 2 57 69 1 0 14 93 49 30 56 0 1 0 20 131 40 2 0 2 32644
-0.012550343 -0.17522448 0.59886837 124 71 1 0 0 0 0 0 61 58 8 24 94 13 1 0 64 59 5 10 56 18 5 4 14 25 9 13 93 73 4 3 59 98 1 0 0 0 0 0 124 116 7 11 22 28 13 12 28 36 4 5 45 96 31 20 24 26 11 12 51 55 20 35 66 13 0 0 1 2 0 2 124 23 1 2 14 9 2 25 67 14 2 18 124 40 4 13 107 24 4 9 56 26 5 16 35 8 0 0 1 2 2 2 124 103 45 17 4 1 0 5 22 39 82 124 55 5 0 2 34 71 84 44 17 1 0 1 4 32644
-0.010326658 -0.17229123 0.60040128 116 2 1 0 0 0 0 89 80 3 3 66 39 0 0 57 50 9 3 78 50 2 1 21 45 7 6 69 26 1 1 34 116 25 5 4 1 1 2 41 50 17 19 116 45 13 2 12 101 9 3 46 25 7 4 71 18 5 4 81 116 12 4 18 92 2 0 6 10 7 8 116 21 2 1 30 105 64 15 26 105 45 14 21 26 18 17 23 7 10 13 110 116 6 1 2 31 6 11 49 32 1 3 91 28 2 5 74 53 4 7 40 20 4 3 18 62 27 36 51 2 1 2 59 116 10 1 2 4 32644
0.0078863511 -0.16785507 0.59138542 115 18 0 4 50 12 0 2 23 35 13 17 111 26 0 1 89 56 5 5 19 17 5 10 3 0 0 5 111 78 3 2 107 121 11 6 29 8 0 0 48 14 10 19 124 39 1 3 124 11 0 1 32 9 2 13 15 1 0 19 124 42 1 3 118 72 7 5 3 1 5 31 32 12 8 17 53 49 43 26 124 28 1 3 17 15 11 20 22 8 1 11 124 59 1 1 124 19 0 0 0 0 3 28 38 7 1 18 78 21 16 16 77 57 4 15 37 5 2 1 23 16 1 11 124 11 0 0 2 32644
-0.010313459 -0.16913782 0.60139567 28 1 0 21 121 14 4 3 132 30 6 7 6 0 0 28 61 19 16 64 73 4 2 19 84 6 2 34 37 4 8 52 43 3 0 55 98 0 0 4 132 30 5 5 8 13 13 75 44 44 20 33 70 57 14 22 59 63 13 39 59 11 2 19 48 3 0 16 72 3 1 15 132 39 3 8 12 7 4 60 61 17 4 42 120 34 5 37 69 8 1 8 74 25 9 82 64 1 0 9 35 1 0 27 132 1 0 12 25 6 3 113 56 10 4 30 82 21 5 35 66 8 2 28 83 1 1 27 1 32644
-0.06449791 -0.17639992 0.6315679 13 4 1 0 2 71 25 21 40 9 0 0 16 126 26 8 127 31 0 0 1 5 2 4 97 19 0 0 0 0 0 0 54 28 4 4 11 13 7 22 29 7 4 26 127 73 6 6 127 9 0 2 18 7 1 6 127 18 0 0 0 0 0 0 10 34 34 26 23 24 5 0 25 22 57 114 56 0 0 0 127 47 5 7 7 0 0 1 123 25 4 0 0 0 0 0 0 0 7 16 64 108 65 1 7 28 40 35 23 65 127 4 81 127 7 1 0 4 103 26 31 89 35 0 0 1 33 8 2 32644
0.044009905 -0.15795775 0.5763554 1 2 1 3 1 0 0 1 5 0 0 2 1 0 11 61 1 0 0 0 0 5 123 75 1 0 0 0 1 51 104 4 18 1 0 2 4 1 0 4 123 5 1 7 4 0 9 123 29 18 39 99 23 7 102 123 2 80 39 15 20 105 77 1 27 2 0 2 3 0 1 3 123 69 2 18 17 1 0 16 45 48 30 123 123 35 21 9 47 123 31 20 26 13 30 29 11 2 0 0 0 1 4 5 68 106 2 1 4 2 1 1 20 110 34 3 29 44 59 7 14 10 43 33 9 8 84 43 3 32644
-0.073154062 -0.1672691 0.63965064 5 27 53 73 6 3 7 8 1 3 29 121 43 7 1 0 64 78 18 52 14 7 2 0 32 40 14 5 5 10 1 1 16 33 101 121 60 16 6 4 96 37 60 70 21 33 24 14 27 62 10 4 10 121 48 7 14 95 83 7 6 25 1 0 20 4 5 20 121 121 18 14 121 22 3 3 6 26 26 70 34 16 3 0 14 120 24 30 28 15 7 0 22 121 12 7 4 17 13 6 48 93 28 7 15 2 0 3 7 27 63 62 54 10 1 2 8 18 14 55 15 1 1 8 85 90 10 13 4 32644
-0.073154062 -0.1672691 0.63965064 1 0 9 61 52 39 4 2 112 5 8 30 18 6 0 55 78 23 45 18 1 1 4 56 4 3 16 50 16 6 7 9 8 1 2 55 112 33 4 4 115 14 6 19 38 8 0 41 30 21 70 73 12 1 0 10 24 67 48 12 1 1 4 7 7 1 2 80 44 28 58 10 83 21 18 45 22 31 53 23 22 15 72 115 21 29 19 27 115 43 32 13 2 3 6 115 9 4 1 3 2 35 115 36 1 0 1 4 16 104 115 8 15 6 4 18 31 115 111 62 81 13 3 2 4 2 17 115 4 32644
0.014534433 -0.15498367 0.5928427 22 7 1 7 146 4 0 4 146 18 1 1 1 1 1 40 80 7 2 5 21 19 6 33 28 9 6 11 25 5 1 19 38 2 0 4 146 23 2 20 146 23 1 1 7 3 2 117 71 21 8 24 117 13 3 35 20 29 26 24 14 0 0 1 35 7 0 12 146 9 0 2 146 120 6 5 5 1 0 15 67 50 15 59 79 7 1 11 38 8 2 6 18 14 7 14 26 4 1 37 86 2 0 1 146 12 1 1 2 2 2 55 62 5 1 5 25 43 9 42 32 4 2 1 8 23 11 26 4 32644
-0.098000236 -0.16769175 0.65832978 10 52 61 26 48 46 22 7 19 11 1 1 7 25 139 29 29 4 2 10 14 13 124 41 139 8 1 1 0 0 6 26 56 103 23 1 0 88 38 13 133 69 2 3 16 17 12 22 43 6 4 20 84 47 6 10 139 9 1 2 4 2 1 27 16 3 1 14 36 139 89 20 70 24 30 19 15 19 26 27 52 4 24 41 34 9 4 30 139 1 0 0 2 1 1 55 12 4 28 100 43 16 3 4 20 3 6 9 12 32 37 14 43 0 3 2 2 20 21 49 139 1 0 0 0 0 0 53 4 32644
-0.065105185 -0.16070136 0.63740683 3 12 43 26 8 0 1 5 23 42 24 1 2 2 7 13 7 2 1 9 106 53 7 6 0 39 24 11 94 46 21 0 12 25 62 113 43 1 0 0 133 102 41 13 2 5 4 19 56 3 0 2 46 129 35 18 0 0 0 1 22 100 133 5 29 6 6 73 66 27 59 38 133 34 4 6 2 2 18 99 84 27 6 6 14 34 16 22 4 0 0 8 31 21 69 49 2 0 0 1 15 52 133 39 49 72 22 15 32 33 37 46 95 112 10 2 1 1 0 13 20 5 6 48 51 2 2 18 2 32644
