# .PCD v0.7 - Point Cloud Data file format
VERSION 0.7
FIELDS x y z descriptor multiplicity pointId
SIZE 4 4 4 4 4 4
TYPE F F F F I I
COUNT 1 1 1 128 1 1
WIDTH 80
HEIGHT 1
VIEWPOINT 0 0 0 1 0 0 0
POINTS 80
DATA ascii
-0.08797957 -0.1310109 0.66649365 86 14 6 0 1 37 44 42 117 34 3 4 36 36 25 117 4 36 15 8 117 74 11 7 48 103 11 2 5 5 3 8 44 3 2 7 31 117 66 28 117 54 4 7 28 15 11 39 18 10 3 8 117 105 27 17 53 14 1 1 5 19 59 117 12 5 18 28 20 20 16 11 74 79 32 14 6 6 9 16 29 46 16 17 42 17 9 21 39 24 116 50 9 3 18 71 5 1 10 29 33 52 16 12 1 90 53 24 18 18 0 0 12 117 47 12 8 3 2 2 16 16 64 56 35 61 68 10 4 32644
-0.0067225667 -0.11645973 0.61912882 2 10 38 28 7 1 1 0 10 14 9 32 24 3 1 0 130 154 6 3 1 0 0 0 154 154 0 0 6 12 0 0 21 7 6 7 13 4 3 16 8 9 11 57 76 8 5 6 143 100 14 19 9 1 1 9 154 154 0 0 0 0 0 0 12 1 0 3 12 8 9 12 7 2 1 19 73 51 31 17 93 12 1 3 7 9 23 74 154 154 0 0 0 0 0 3 0 0 1 1 1 3 6 2 0 1 1 2 5 18 16 3 6 7 3 1 2 3 10 14 53 57 1 0 0 0 0 1 2 32644
-0.0067225667 -0.11645973 0.61912882 0 0 1 1 5 21 5 0 5 6 17 13 4 2 2 1 4 16 21 5 1 0 1 1 4 7 11 6 2 0 0 0 0 0 0 3 45 143 3 0 9 14 30 64 93 18 1 2 95 55 30 13 10 3 1 6 14 10 5 11 29 4 1 1 0 0 0 0 106 200 0 0 10 1 1 5 114 181 14 12 96 13 5 4 8 21 15 36 12 5 4 6 15 9 18 17 1 28 2 0 65 200 0 0 0 0 0 0 42 200 7 1 21 2 1 0 11 90 12 11 44 3 1 0 1 3 17 32 3 32644
0.062433492 -0.097635157 0.60376638 34 3 0 5 41 1 0 0 210 11 0 1 2 2 2 8 61 6 1 1 3 16 9 7 9 21 18 1 0 2 7 5 40 1 0 3 42 10 1 2 210 4 0 0 3 5 7 39 91 0 0 0 6 65 48 29 3 1 3 0 2 12 44 16 38 4 1 8 29 3 0 1 210 12 0 1 4 2 1 8 157 3 0 4 53 47 6 9 4 0 0 1 20 16 9 15 30 2 0 3 27 1 0 1 210 11 0 2 4 0 0 0 127 8 2 34 36 2 0 0 12 9 4 8 10 2 3 11 1 32644
-0.09045282 -0.085518435 0.68798804 20 62 8 6 58 61 13 6 61 78 5 3 4 9 24 32 22 13 20 25 36 14 2 10 21 19 8 4 14 27 7 19 24 37 9 10 126 97 12 9 126 88 7 7 31 27 13 32 26 48 49 50 97 17 3 6 73 102 16 6 8 18 8 32 10 58 42 19 49 65 13 7 62 86 32 29 37 33 30 23 14 65 37 126 126 6 2 3 80 126 17 24 21 1 0 0 48 25 25 12 4 5 8 20 5 7 72 50 18 19 46 11 2 6 24 74 126 14 6 3 17 123 8 6 25 13 5 2 2 32644
-0.016437432 -0.079495326 0.6389699 0 0 53 109 0 0 28 81 4 3 111 123 4 0 4 11 31 18 95 119 16 7 0 1 2 0 4 37 64 26 0 0 16 22 123 123 3 1 4 15 30 15 44 111 34 17 7 11 123 13 5 8 24 10 2 6 10 1 0 2 123 16 0 1 19 8 14 33 9 9 106 123 18 5 4 29 45 67 47 56 92 29 4 7 22 14 5 9 11 6 0 3 123 9 0 0 15 14 1 12 18 7 25 35 1 4 8 73 95 31 5 5 54 59 12 12 14 8 1 3 19 10 0 2 97 4 0 1 4 32644
-0.016753096 -0.073718742 0.64191133 3 3 127 131 3 0 4 9 41 25 131 131 17 7 0 1 5 1 10 74 107 42 0 1 0 0 1 8 38 16 1 0 27 13 47 121 37 14 5 8 131 15 9 12 25 11 2 9 23 1 0 4 131 27 1 2 0 0 0 9 77 2 0 0 18 5 3 22 42 78 47 50 131 29 3 7 24 19 7 16 23 10 1 7 131 10 0 0 0 0 0 5 79 4 0 0 1 5 11 89 90 22 6 5 72 80 17 16 15 5 0 2 30 17 0 4 131 5 0 0 0 0 0 7 67 2 0 0 3 32644
-0.07537514 -0.065762937 0.68317395 7 7 18 120 85 1 3 16 62 85 12 35 36 1 1 57 35 40 35 25 2 3 39 113 2 3 21 33 6 23 138 32 10 1 34 109 19 4 2 5 138 20 2 15 9 0 2 138 57 11 16 25 1 0 27 138 2 2 47 59 2 5 54 26 20 5 1 4 43 59 36 8 138 79 5 2 14 7 0 33 78 39 35 40 1 1 15 31 2 5 21 30 2 1 38 31 14 2 15 82 82 38 24 9 138 23 1 9 21 5 0 27 71 17 27 11 0 0 5 26 3 6 47 34 0 0 4 8 3 32644
-0.10619 -0.032553587 0.72264218 16 11 2 2 127 14 0 0 30 27 15 85 108 3 0 0 119 38 14 71 76 5 2 21 66 8 0 0 6 14 22 43 2 5 10 15 127 25 0 0 8 13 74 125 105 13 3 3 127 33 17 38 42 4 4 41 73 56 58 0 0 0 6 22 0 0 0 3 127 55 0 0 3 1 7 21 109 82 34 7 48 28 24 11 9 18 37 27 9 100 115 16 11 21 2 0 0 0 0 0 127 28 0 0 0 1 3 6 123 23 3 0 0 13 14 5 9 14 5 1 0 11 8 5 16 54 3 0 2 32644
-0.10619 -0.032553587 0.72264218 2 73 60 0 0 0 0 1 1 114 114 2 0 0 0 0 1 114 114 1 0 0 0 0 0 91 60 0 0 0 0 0 5 10 11 4 3 0 6 18 8 26 54 52 25 8 2 2 96 114 77 11 2 2 4 26 19 114 56 0 0 8 22 18 19 12 56 16 2 1 11 35 22 6 7 12 21 82 80 54 70 114 24 4 8 107 35 14 55 114 20 1 0 15 32 13 14 3 6 3 0 0 102 114 15 0 0 2 7 45 56 93 6 11 7 11 17 114 58 5 37 56 26 4 2 34 53 12 4 32644
-0.047402028 -0.025296669 0.68226665 1 3 35 17 1 6 47 22 6 4 18 14 1 7 67 52 5 5 11 1 0 0 110 92 2 3 4 0 0 1 110 77 51 26 2 2 39 39 90 87 21 57 30 16 79 71 64 38 110 103 16 1 1 8 61 63 17 21 8 2 14 30 26 24 34 110 50 2 22 16 2 4 18 83 45 4 38 99 97 20 110 28 14 10 4 12 72 83 17 18 41 13 21 34 0 2 3 41 24 0 0 3 3 1 75 110 40 2 0 1 6 4 24 43 68 110 9 2 10 6 0 20 110 59 4 1 0 0 3 32644
-0.055436868 0.005654973 0.70258701 73 18 0 1 123 59 1 12 123 60 2 3 33 40 22 40 83 21 1 2 49 54 12 12 63 36 10 9 1 0 0 2 56 16 0 0 123 111 4 8 123 69 2 5 29 32 5 24 60 10 2 14 55 75 8 12 69 19 6 3 3 3 5 23 40 10 3 23 123 113 8 19 123 88 13 18 45 26 4 27 48 19 11 37 34 16 26 20 98 0 0 1 5 9 8 35 22 36 12 39 88 45 5 3 123 50 2 8 33 53 9 13 95 20 1 0 0 16 27 26 38 0 0 0 1 9 13 45 4 32644
-0.036493801 0.0053776018 0.68763053 37 14 3 18 41 3 1 7 32 12 3 42 121 9 1 9 121 18 3 23 65 0 0 8 35 8 3 66 98 0 0 1 35 60 20 47 67 2 1 6 37 38 28 113 121 12 2 7 121 9 1 25 61 5 1 30 31 2 1 15 121 25 1 8 40 17 6 20 90 11 13 61 31 13 9 29 108 95 30 39 121 81 13 15 43 19 0 9 15 21 16 54 108 12 0 2 100 3 0 8 41 24 4 23 49 3 1 9 121 37 6 15 51 14 2 4 54 24 10 63 7 4 2 31 52 20 4 8 4 32644
-0.045344573 0.0088178106 0.69882131 23 12 2 14 55 60 9 7 114 106 21 21 27 11 1 3 56 23 17 68 79 13 3 6 120 29 3 3 2 1 2 23 30 12 1 6 120 55 8 12 120 38 7 5 64 24 19 91 60 9 6 17 34 104 44 53 120 19 2 2 3 6 5 39 55 8 1 4 120 18 1 6 120 32 1 3 76 12 3 30 73 14 2 12 85 46 8 21 104 18 5 3 7 5 2 15 31 2 1 7 109 50 6 26 120 12 3 5 49 23 4 57 47 5 4 23 39 28 4 19 43 6 2 2 6 4 4 24 3 32644
-0.02627812 0.0070998478 0.68185383 120 11 1 0 1 1 1 35 68 16 6 28 120 11 2 14 75 18 3 10 55 11 10 78 23 12 7 33 37 25 14 30 81 19 3 2 2 1 3 60 45 32 22 106 53 6 2 10 120 22 6 29 35 4 5 56 43 19 4 41 112 12 6 19 106 5 0 2 9 14 15 69 43 8 1 25 120 70 15 17 120 75 23 34 35 5 1 17 59 14 17 83 86 2 1 19 120 9 1 11 22 3 2 25 34 5 1 49 120 11 3 29 63 23 8 12 28 30 28 102 58 4 7 22 20 42 15 42 4 32644
-0.10602269 0.023131177 0.7477417 66 38 1 0 0 0 0 1 162 104 0 0 0 0 0 5 122 46 1 2 2 2 2 2 24 9 1 1 2 2 5 13 109 6 0 0 0 1 1 20 162 11 0 0 0 0 0 42 162 21 0 0 0 0 0 13 29 6 0 0 0 0 1 17 81 1 0 0 0 1 1 37 162 25 0 0 0 0 0 33 162 18 0 0 0 0 0 22 39 4 0 0 0 0 0 20 70 0 0 0 0 0 0 45 162 1 0 0 0 0 0 146 106 9 0 0 0 0 0 41 17 24 2 0 0 0 0 2 4 32644
-0.030168179 0.018057514 0.68901193 1 0 1 3 74 31 6 3 3 6 3 40 123 23 4 5 28 57 23 34 50 20 15 49 48 16 8 40 62 47 9 6 0 0 10 61 90 15 5 1 18 2 7 70 123 50 6 7 123 10 0 6 73 32 16 70 29 10 0 1 123 77 11 19 5 5 10 27 82 13 18 13 11 4 13 54 107 123 25 12 123 36 11 30 53 39 6 21 33 13 8 61 123 29 3 11 2 6 31 62 71 1 0 1 8 5 46 123 35 4 0 2 72 30 13 43 21 16 8 43 26 9 4 28 78 57 7 12 1 32644
-0.030168179 0.018057514 0.68901193 30 7 14 55 41 3 13 46 51 7 9 21 28 16 39 82 8 4 13 79 33 13 53 36 10 0 0 7 3 3 68 70 112 10 13 30 14 0 2 103 54 8 7 112 80 8 12 48 112 31 9 27 17 8 55 82 16 9 9 6 8 33 94 52 101 39 39 38 17 10 15 47 60 10 39 112 43 2 2 96 112 27 7 6 3 3 31 112 31 15 14 5 3 3 14 94 11 2 5 19 58 41 32 49 75 2 6 7 14 11 12 112 66 8 7 1 1 3 16 82 38 0 0 0 0 3 13 90 3 32644
-0.020303782 0.0196751 0.68418044 0 0 3 33 86 50 15 5 92 30 0 3 62 94 12 9 80 35 5 18 91 56 3 4 52 19 2 16 59 42 7 24 9 9 23 41 38 44 23 20 25 21 15 110 100 99 13 6 57 55 28 46 55 33 10 21 51 37 4 29 78 69 6 5 1 4 29 97 101 5 0 0 39 8 10 114 78 4 0 2 114 45 3 8 19 39 11 38 36 9 0 0 77 114 9 9 0 0 0 7 114 35 0 0 17 3 0 4 74 34 1 1 114 61 1 0 6 7 1 1 33 18 2 21 89 43 0 0 1 32644
0.089129277 0.01024706 0.68612242 1 2 5 30 141 2 0 0 129 2 0 6 141 2 0 13 43 2 1 4 5 9 3 7 0 0 0 1 2 5 4 0 3 5 24 136 141 3 0 0 141 4 1 26 118 2 1 25 52 3 3 14 11 19 5 15 1 0 1 4 4 9 7 4 2 1 3 19 141 86 18 1 140 38 4 4 101 20 0 8 38 21 12 29 3 0 7 34 4 1 1 4 1 0 18 53 1 0 0 11 141 71 19 1 90 8 0 2 120 15 1 48 34 4 1 1 0 0 10 77 2 1 1 4 1 0 6 21 1 32644
-0.027126335 0.023081183 0.68968916 78 10 10 20 17 6 22 64 27 9 25 117 39 6 18 16 22 0 1 38 13 0 25 67 39 0 0 0 0 0 5 117 40 4 4 67 50 13 28 68 74 11 7 39 32 17 102 89 10 2 1 3 6 35 117 96 37 0 0 0 1 5 25 117 43 10 25 117 47 0 1 55 117 41 13 17 6 2 24 106 39 22 23 10 9 19 27 91 30 0 0 9 11 5 10 117 59 3 14 18 11 7 8 117 51 6 4 1 1 5 33 117 26 2 1 0 1 4 25 117 11 0 0 6 10 7 10 62 2 32644
0.097747497 0.014878946 0.70359135 22 8 0 12 64 33 3 4 156 106 13 1 15 5 1 6 24 26 64 20 0 4 12 8 0 0 37 18 1 5 8 0 19 5 2 7 126 14 2 6 156 16 0 0 43 3 8 79 67 2 0 0 0 48 93 60 0 0 0 0 1 70 53 0 17 6 2 6 112 8 0 1 156 47 0 1 48 3 1 15 148 17 0 0 0 22 28 14 0 0 0 0 0 68 49 0 11 1 0 1 85 20 2 5 156 50 0 1 53 6 0 0 156 27 0 0 0 0 0 0 0 1 1 1 1 3 1 0 2 32644
0.042597726 0.087317303 0.67700779 2 2 10 7 0 0 49 87 25 15 11 2 1 3 74 94 48 1 0 0 20 24 80 47 99 0 0 0 2 3 3 29 17 18 54 124 56 3 17 25 124 94 48 19 7 1 2 10 102 4 0 0 67 7 1 17 111 0 0 0 7 4 1 31 29 5 2 24 124 66 16 33 124 16 1 3 17 5 9 124 113 1 0 5 69 2 0 30 110 0 0 0 8 3 0 23 24 7 1 10 77 60 17 24 124 16 1 4 21 4 8 76 82 0 0 5 59 1 0 17 83 0 0 0 6 1 0 12 4 32644
0.0066864071 -0.16071704 0.59409618 88 6 1 1 11 11 14 24 35 1 0 3 141 35 6 18 141 15 3 1 41 6 0 18 20 14 8 4 10 0 0 4 140 3 1 17 18 9 9 25 26 3 2 52 141 18 3 6 141 24 2 7 51 3 1 28 21 6 2 2 16 5 9 37 136 12 1 14 20 10 5 14 24 1 0 21 141 53 6 11 141 9 1 3 60 10 1 15 37 4 2 31 29 2 6 14 119 25 4 13 7 4 3 7 16 1 2 32 141 8 2 4 141 12 3 6 51 3 0 12 31 6 7 30 68 1 0 1 1 32644
0.019857187 -0.15746397 0.58901757 6 3 12 36 15 3 1 1 19 1 2 42 144 11 1 5 144 13 1 4 35 2 1 59 39 8 4 12 43 2 2 35 2 0 1 9 28 22 13 3 40 2 0 37 144 22 4 3 144 9 3 20 42 2 0 28 27 18 23 41 60 1 1 6 1 1 12 20 51 7 2 0 37 10 2 56 144 1 0 0 144 103 20 24 42 0 0 0 30 32 38 40 54 3 1 4 0 1 144 60 9 0 0 0 7 9 53 139 75 0 0 7 30 104 32 16 12 1 24 68 2 34 68 30 8 20 41 14 4 32644
0.019857187 -0.15746397 0.58901757 5 13 57 45 4 26 60 15 29 1 9 65 29 78 29 25 102 3 0 1 2 4 48 139 11 2 0 0 1 2 114 61 42 4 1 1 25 41 62 38 55 4 0 0 139 139 26 16 139 21 1 0 23 11 1 19 43 12 6 1 2 1 3 7 81 6 1 1 19 18 22 28 38 3 0 6 139 52 3 16 139 46 4 2 51 9 0 11 31 24 13 3 1 1 1 12 85 5 1 17 22 8 7 10 11 2 1 34 139 24 2 2 139 26 1 4 52 6 0 12 43 4 0 0 2 1 6 40 2 32644
-0.044692576 -0.13368994 0.63482815 3 10 28 35 3 6 11 3 66 18 7 14 1 3 3 12 169 8 0 0 0 0 0 35 61 0 0 24 74 0 0 6 1 0 0 4 22 45 62 13 67 32 8 14 35 21 9 7 169 48 2 2 3 0 0 11 66 1 0 33 139 0 0 2 4 10 9 48 74 13 7 4 67 6 1 30 57 6 6 30 169 12 0 2 6 1 1 43 58 1 0 28 169 0 0 2 3 12 10 33 34 1 0 1 62 11 7 12 16 2 1 14 169 18 0 1 7 0 0 16 40 2 0 14 161 0 0 0 2 32644
-0.10033918 -0.13374777 0.67587888 14 4 2 9 71 22 12 6 11 8 2 5 34 24 84 57 161 13 0 1 1 3 25 74 166 8 0 0 0 0 0 32 28 11 7 9 11 7 17 24 5 1 1 35 25 15 58 51 166 15 2 19 8 6 17 30 166 41 0 0 0 0 0 6 80 25 6 6 3 2 5 17 22 41 5 9 15 27 52 11 85 19 1 4 5 18 60 41 166 73 0 0 0 1 1 17 23 10 4 2 24 37 20 39 50 89 9 3 22 24 6 8 47 15 3 2 2 5 13 68 166 5 0 0 0 1 3 63 2 32644
-0.053808708 -0.092468202 0.6578505 0 6 103 70 26 21 25 0 4 5 15 38 61 47 19 6 106 37 1 0 2 36 34 14 115 115 42 10 2 2 1 11 61 42 115 38 0 0 0 4 110 16 17 11 3 11 23 95 18 13 1 6 15 104 59 38 46 95 25 1 1 11 26 70 115 12 3 2 1 1 19 58 115 32 3 14 8 3 5 39 17 12 38 74 46 22 9 10 22 112 82 15 3 3 12 42 15 1 0 1 4 4 67 78 65 5 4 11 11 6 19 82 6 1 10 71 115 16 1 5 0 65 51 50 30 0 0 0 1 32644
-0.040782806 -0.019179471 0.68071079 6 3 30 15 1 0 11 42 3 1 27 63 8 3 21 18 9 3 17 39 1 0 22 99 17 9 4 3 0 0 33 117 17 3 47 54 1 0 2 9 95 16 27 19 1 10 65 117 26 34 15 5 25 95 108 110 112 109 13 1 3 11 20 84 24 6 2 10 1 0 6 10 117 117 43 1 1 6 8 38 15 116 117 7 21 81 40 21 54 88 44 26 5 12 35 78 7 1 0 0 0 0 1 9 6 37 18 0 0 0 1 6 4 69 93 0 0 0 2 4 6 117 74 27 2 0 0 1 2 32644
-0.040782806 -0.019179471 0.68071079 6 6 33 62 30 27 57 9 5 24 45 27 120 112 24 5 1 2 4 3 66 120 1 0 0 1 6 5 2 3 0 0 7 14 101 103 120 18 1 3 120 91 55 30 47 72 6 25 20 8 13 48 120 120 4 4 0 1 7 11 33 8 0 0 1 16 120 27 12 12 21 2 39 115 120 36 10 10 23 8 5 18 99 120 79 15 8 1 0 5 10 22 14 1 7 1 1 4 12 10 2 19 44 3 3 17 24 5 2 26 64 10 0 2 19 13 3 58 56 0 0 2 3 2 1 14 67 2 3 32644
0.097865663 0.016164888 0.70360464 23 10 1 25 57 18 1 1 155 131 18 2 11 4 1 5 21 35 97 30 1 4 8 5 0 0 66 33 1 5 3 0 19 4 1 8 81 17 2 4 155 21 1 1 33 4 9 79 64 5 3 1 0 55 97 57 0 0 1 1 1 77 50 0 16 5 2 6 74 11 1 2 155 50 0 1 36 4 2 16 155 19 0 0 0 29 37 17 0 0 0 0 0 92 55 0 13 3 4 8 57 12 1 3 155 54 0 4 43 5 0 0 155 34 1 0 0 0 0 0 0 1 2 3 1 7 2 0 1 32644
0.031467386 -0.15632485 0.58358586 22 34 0 1 47 93 1 0 48 111 12 13 18 17 0 0 3 17 18 34 81 66 0 0 58 50 23 11 48 21 6 29 4 6 0 4 57 97 8 1 14 98 56 15 96 68 0 1 43 37 84 44 25 9 25 42 70 29 14 16 39 27 59 35 8 30 41 111 30 13 1 0 23 24 18 111 100 16 0 1 111 111 46 20 10 7 10 41 6 17 50 111 72 17 12 8 1 21 78 104 0 0 0 0 1 10 14 87 2 0 0 0 7 87 65 19 1 0 0 0 0 11 74 95 3 0 3 12 2 32644
0.031467386 -0.15632485 0.58358586 69 94 14 0 0 0 0 70 6 30 31 63 9 1 2 24 9 0 7 117 22 1 1 37 16 2 3 34 5 0 12 117 7 117 59 0 0 0 0 1 12 96 117 76 0 0 7 13 117 30 29 76 0 0 6 79 28 23 30 55 2 0 2 59 35 20 9 0 1 0 0 25 81 26 22 5 3 10 81 117 51 47 21 12 27 50 78 28 18 31 66 88 12 5 10 16 37 49 8 0 0 10 3 7 86 117 64 10 3 3 6 32 26 30 78 30 39 26 19 25 33 9 11 10 19 37 117 72 2 32644
-0.061116137 -0.1298815 0.64932412 5 4 24 67 131 41 7 1 27 30 47 33 6 10 8 9 33 14 24 31 10 14 17 12 16 3 4 16 76 18 20 10 21 2 1 8 140 126 1 2 136 13 4 6 20 26 27 40 30 10 10 31 27 57 51 19 21 8 6 13 40 16 32 25 30 5 0 2 140 140 1 1 84 58 54 17 49 37 4 9 29 20 56 99 19 6 16 16 75 23 7 9 5 4 9 22 35 3 0 0 140 123 0 0 6 5 11 2 100 64 18 60 20 2 7 5 9 18 64 83 31 25 5 2 34 38 17 34 3 32644
-0.065694101 -0.11985952 0.65735561 12 14 5 18 26 31 79 52 38 56 8 8 2 5 84 117 11 33 32 37 15 15 21 13 3 13 47 58 10 33 30 1 54 64 9 2 1 3 36 49 18 28 72 80 11 10 29 33 117 36 33 26 8 14 38 39 18 7 14 33 44 107 89 22 10 5 7 4 2 27 117 71 14 5 10 26 42 117 57 12 106 46 80 40 9 13 8 21 11 15 117 117 20 7 11 17 1 14 93 43 4 8 20 12 7 17 30 31 64 65 19 4 4 3 36 43 36 76 45 31 6 1 18 19 0 2 57 117 4 32644
-0.091713145 -0.11819711 0.67572552 1 29 140 89 4 5 10 1 0 52 140 89 1 0 0 0 1 140 140 3 0 0 0 0 0 121 140 0 0 0 0 0 19 29 125 37 30 6 1 1 12 17 93 74 20 21 11 3 92 97 80 9 3 10 9 19 23 80 122 2 5 15 6 14 29 4 0 8 16 27 46 16 33 13 13 6 12 57 82 25 90 19 11 3 5 32 62 31 31 19 26 9 4 20 13 21 3 12 8 5 17 54 31 3 15 20 31 11 22 18 9 21 14 15 21 8 15 28 18 29 13 28 40 9 16 18 3 3 4 32644
-0.063056134 -0.085527629 0.66684514 18 81 59 15 8 4 4 20 12 11 16 39 45 25 9 19 52 16 2 2 12 13 52 122 1 0 0 0 13 25 122 122 32 8 5 3 4 9 28 122 40 2 3 4 29 71 36 46 122 53 3 1 1 5 17 122 28 19 7 9 20 17 36 59 10 11 41 61 6 2 11 36 61 60 31 14 11 13 30 40 122 53 21 5 1 2 27 76 43 31 115 48 12 4 9 15 3 12 47 90 6 4 1 0 102 122 31 11 0 1 1 5 53 121 34 4 1 3 16 20 18 20 32 10 4 16 82 32 3 32644
0.085348681 -0.084373854 0.64620709 0 78 115 1 6 40 25 0 0 125 125 1 6 10 3 1 0 125 125 0 0 1 2 0 0 92 123 0 0 0 0 0 0 2 4 17 85 45 16 0 44 25 32 12 61 18 29 27 10 70 102 0 0 51 85 12 0 124 125 0 0 44 31 0 2 5 6 39 108 0 0 0 125 15 1 16 72 0 4 12 50 3 1 2 2 30 33 11 0 2 3 4 4 72 37 0 3 4 3 30 81 0 0 0 125 13 1 14 50 0 0 7 48 4 1 1 1 15 7 9 0 0 0 4 5 28 3 0 2 32644
0.041409668 -0.17449956 0.57077813 48 12 23 61 67 3 1 5 127 60 5 6 5 8 17 50 21 30 13 28 24 43 29 29 19 40 29 0 0 3 36 40 106 23 29 19 1 2 19 25 127 57 7 6 6 25 36 127 24 34 21 42 65 127 60 47 7 49 61 4 4 16 49 18 49 7 8 9 21 51 68 26 127 127 66 17 5 7 5 33 16 62 117 127 54 27 12 11 2 31 92 17 4 5 26 9 8 15 41 20 13 9 71 11 24 48 25 1 1 2 64 21 8 32 55 7 0 0 59 11 1 11 45 1 0 1 56 6 4 32644
0.039516579 -0.17453815 0.57079268 62 0 0 0 8 17 3 63 70 1 4 5 1 4 46 124 0 2 7 5 20 116 62 10 0 0 0 0 79 120 3 0 124 5 2 17 17 5 0 37 124 7 13 38 8 1 1 36 13 18 19 23 50 13 2 11 1 1 0 20 124 26 0 0 124 57 2 9 1 0 0 2 79 76 5 10 9 3 7 16 9 6 10 51 62 2 10 44 0 0 0 90 124 0 1 1 27 85 4 0 1 1 0 0 12 124 75 3 0 0 1 2 2 20 120 124 15 0 0 3 0 0 7 103 55 1 0 0 3 32644
0.0024297675 -0.16895188 0.5944373 105 30 0 0 9 10 4 19 54 7 1 3 36 39 6 12 76 18 3 9 71 11 1 9 0 0 0 4 125 26 0 0 125 12 0 1 22 5 1 16 36 29 14 33 125 25 2 5 84 79 15 14 38 19 3 11 5 1 0 6 125 72 2 3 125 109 3 2 10 2 0 0 44 33 7 12 125 46 1 4 125 13 1 1 39 23 3 18 19 2 0 4 125 60 1 4 125 33 1 1 1 0 0 10 54 14 2 6 49 40 7 17 115 30 1 5 29 18 2 4 20 9 0 6 125 17 0 0 4 32644
0.0024297675 -0.16895188 0.5944373 127 10 0 0 6 2 0 24 37 6 2 12 127 10 1 10 66 33 6 19 38 5 1 11 3 2 2 39 127 9 0 1 127 27 2 6 8 0 0 20 49 14 3 55 127 5 1 2 127 20 2 12 49 21 7 19 12 1 0 6 127 72 3 4 127 39 2 3 3 2 1 22 34 10 2 19 86 73 12 20 127 11 1 11 40 21 12 50 17 1 1 42 127 11 0 2 127 5 0 2 2 1 0 19 37 6 1 30 87 11 2 10 51 34 7 24 35 5 1 7 3 3 3 42 127 12 0 1 5 32644
0.037673764 -0.16536561 0.57616001 3 0 0 11 111 89 4 2 41 0 0 1 15 5 17 109 6 2 14 23 11 3 94 99 10 41 29 9 1 5 111 20 20 0 1 111 111 5 0 4 111 23 1 7 25 1 3 70 31 12 20 63 111 45 30 29 49 74 39 22 12 13 54 66 15 3 6 57 8 0 3 9 92 111 31 2 3 2 11 10 12 96 111 3 23 35 31 5 12 34 111 10 1 8 61 66 6 0 0 0 0 0 10 75 3 11 6 1 8 37 91 67 2 26 45 2 8 44 52 10 0 10 85 10 3 40 28 4 5 32644
0.031796038 -0.16486645 0.57916123 0 0 5 5 1 30 52 3 2 17 10 1 1 27 17 4 1 32 76 4 0 1 43 43 0 2 43 30 1 15 97 21 1 4 29 9 12 89 114 14 25 0 4 14 73 114 35 14 114 6 7 15 9 5 49 114 7 14 66 43 10 33 99 40 3 14 114 23 11 11 42 14 37 6 24 47 103 47 14 5 114 36 4 17 37 28 3 10 37 27 44 44 61 89 21 22 1 1 30 21 7 10 114 17 6 7 4 67 95 40 25 4 114 114 3 12 22 16 3 4 33 67 23 1 4 79 57 30 1 32644
0.085621506 -0.17718965 0.61327678 84 8 3 0 0 0 15 68 21 1 2 1 0 23 141 64 1 2 4 0 0 49 141 3 0 2 9 0 0 36 141 1 141 11 2 1 0 0 1 34 88 26 41 39 2 6 30 28 81 33 15 5 0 16 96 19 8 0 0 4 3 30 141 6 141 10 1 2 2 1 0 8 95 17 11 27 23 16 1 10 141 19 3 4 3 1 1 18 19 1 1 24 26 2 3 2 141 2 0 0 2 2 0 12 86 9 0 5 58 14 1 9 141 21 0 2 9 1 0 6 15 2 0 8 45 0 0 0 1 32644
0.064241804 -0.16696289 0.58480257 31 2 0 0 0 0 2 4 168 3 0 2 7 1 0 24 119 20 3 19 43 5 0 11 60 24 4 2 1 0 1 4 44 4 1 2 0 0 2 4 168 7 1 3 12 4 1 38 134 15 3 19 76 25 2 11 122 15 1 1 5 2 1 5 53 6 3 7 1 1 0 3 168 33 5 18 8 1 0 9 130 27 15 87 45 6 2 12 147 9 3 2 3 2 1 23 37 1 0 1 1 6 17 17 168 28 2 4 4 6 12 35 71 22 15 15 12 21 74 76 57 6 14 1 1 2 12 52 2 32644
-0.065608762 -0.17179401 0.63288933 0 0 20 134 2 0 0 0 2 0 43 134 4 1 6 9 10 38 16 89 33 41 38 9 134 134 5 2 2 14 13 9 7 2 14 134 10 0 0 0 101 11 22 77 1 1 17 101 18 3 4 23 25 88 98 66 134 43 1 3 7 36 40 69 21 3 3 53 57 62 2 2 134 56 20 12 8 9 1 20 31 25 45 67 15 5 2 10 71 26 13 13 6 2 2 16 9 1 0 10 66 46 3 2 86 31 10 12 22 11 1 2 14 36 63 49 0 0 0 0 40 56 19 4 7 3 0 4 2 32644
0.032205395 -0.15975498 0.58020324 1 68 67 2 1 23 44 3 3 24 50 69 62 30 9 4 66 1 2 23 35 7 15 93 15 11 42 16 3 20 90 46 0 17 49 31 11 63 84 2 27 5 12 87 93 39 21 6 120 4 2 18 46 19 6 73 33 30 50 46 84 47 13 27 0 35 120 64 3 2 0 0 45 13 35 120 14 1 0 0 120 116 3 5 15 31 3 17 23 38 11 5 36 103 87 53 0 3 12 8 1 33 30 0 8 7 2 7 1 14 11 0 36 120 32 1 1 3 1 0 4 105 120 18 1 3 12 5 4 32644
-0.020014137 -0.15937994 0.60981083 0 0 2 142 49 0 0 0 27 2 4 101 14 0 2 22 43 0 0 2 1 38 84 89 5 25 0 0 4 117 38 4 0 0 1 138 50 0 1 2 102 9 3 10 2 1 8 40 142 27 1 0 3 38 27 86 12 9 3 2 67 142 16 7 18 0 0 24 12 0 7 61 34 2 0 0 0 0 64 142 93 30 7 0 2 22 32 142 11 23 19 4 44 88 5 3 76 47 1 4 1 0 1 33 70 78 0 0 0 1 13 79 28 51 3 3 3 20 7 22 8 12 5 11 11 30 5 5 1 32644
-0.020014137 -0.15937994 0.60981083 22 5 0 0 48 19 2 17 71 40 1 0 0 0 77 104 9 16 6 2 1 37 131 25 0 1 2 3 1 55 131 1 12 18 3 3 114 23 0 1 67 131 23 1 1 0 3 11 73 131 53 10 1 9 32 15 7 9 18 17 3 17 64 10 0 1 1 2 131 53 0 0 99 35 4 1 3 3 1 24 131 54 13 0 0 0 5 37 15 21 47 4 4 4 26 8 0 0 0 0 131 103 0 0 73 31 2 0 13 9 0 6 99 88 71 0 0 0 0 11 6 28 113 1 0 0 0 1 3 32644
0.0053734416 -0.15684892 0.59514701 45 13 0 2 96 9 0 0 179 71 1 1 2 1 1 20 74 18 1 8 34 32 10 26 32 1 0 1 12 37 13 29 58 7 1 23 103 3 0 2 179 12 0 1 1 1 1 68 99 3 0 3 18 39 14 49 20 2 4 15 14 17 8 24 61 1 0 5 105 35 1 14 179 29 1 1 0 0 0 19 120 18 2 8 15 4 4 18 21 4 2 6 34 36 8 20 46 1 0 9 116 19 1 5 179 15 0 0 0 0 0 11 119 12 9 9 14 2 3 8 8 14 32 20 21 7 6 5 1 32644
-0.10226505 -0.16515395 0.66314209 1 6 85 132 29 0 0 0 10 28 132 103 1 0 2 3 2 3 95 48 1 4 13 27 6 6 48 10 2 14 8 7 21 16 29 132 65 6 2 4 132 57 28 15 1 1 6 27 19 9 41 41 2 4 18 48 12 11 26 15 12 17 14 13 18 0 0 16 61 85 15 24 125 32 16 19 5 7 12 45 36 22 53 109 10 3 2 32 102 16 17 7 1 9 24 114 1 0 0 1 44 75 63 59 7 1 1 16 54 50 75 74 67 1 1 12 38 21 5 92 97 15 1 1 2 2 1 90 4 32644
-0.090503737 -0.16337098 0.65379381 9 5 27 134 5 0 2 16 17 2 16 36 6 16 25 35 22 19 20 12 6 13 22 11 4 3 20 52 9 22 23 4 78 107 31 27 5 0 1 20 34 27 33 128 35 3 2 21 134 43 24 29 7 9 42 59 26 1 1 2 10 134 83 25 99 81 11 10 5 11 16 23 58 30 17 71 56 36 14 22 134 42 7 7 8 6 2 30 54 34 14 5 26 51 3 3 37 1 0 0 3 67 47 121 40 6 1 15 96 98 43 72 134 52 6 6 22 13 1 13 58 29 7 11 41 1 1 34 4 32644
-0.056222372 -0.15511616 0.63386297 53 75 46 8 7 6 7 7 77 47 33 7 6 10 22 23 29 4 0 1 12 68 66 27 10 55 4 0 15 59 11 2 27 19 25 12 28 43 17 8 138 53 17 1 0 1 3 24 65 14 27 27 20 12 2 7 2 4 6 14 51 50 6 1 10 0 0 0 5 138 138 10 95 52 47 4 4 101 57 21 16 78 138 14 2 7 3 0 11 58 23 5 38 14 0 0 0 0 0 0 0 138 68 0 0 2 7 2 3 138 98 0 14 30 18 1 1 138 93 3 37 53 2 1 4 18 12 3 4 32644
-0.097550355 -0.1573232 0.6625784 40 63 0 0 81 113 1 3 122 114 0 0 1 4 4 29 40 25 3 4 10 4 6 17 68 41 3 5 27 5 0 1 31 2 0 2 122 122 9 12 122 21 2 9 13 27 9 65 42 29 44 95 55 4 4 16 41 82 72 11 9 3 1 1 7 1 0 16 102 104 5 3 105 82 27 18 41 53 4 8 12 41 46 105 100 8 1 0 11 82 87 13 17 6 0 0 2 2 0 2 48 56 20 0 13 19 10 4 104 57 2 3 33 12 10 8 20 42 16 20 17 6 6 4 21 74 13 7 4 32644
-0.11430147 -0.15427718 0.67619437 22 4 0 0 1 6 27 66 41 3 0 2 24 15 23 45 180 1 0 0 4 2 2 27 99 1 0 1 1 0 0 4 50 11 1 2 3 4 8 31 66 16 3 23 40 2 0 4 180 17 1 3 5 0 0 14 116 2 0 1 2 0 0 3 10 34 36 70 11 4 4 15 61 54 22 12 26 4 0 15 180 9 0 1 3 1 0 47 107 1 0 2 2 0 0 6 2 52 32 82 22 0 0 0 58 169 41 1 0 0 0 3 180 80 1 0 0 0 0 12 76 2 0 1 4 0 0 3 4 32644
0.05988571 -0.14322513 0.58533853 37 1 0 1 10 2 0 2 192 7 0 0 0 1 2 11 131 14 33 14 0 12 58 15 0 0 59 20 0 2 76 9 50 2 0 2 15 1 0 2 192 11 1 1 1 0 0 11 123 17 47 46 33 1 0 1 0 14 79 23 5 0 0 0 55 1 0 4 14 1 0 3 192 7 0 1 1 1 2 15 109 4 1 14 44 47 23 13 0 5 20 10 10 28 28 4 44 3 0 1 14 2 0 0 192 11 2 1 0 0 1 13 103 11 42 50 9 37 23 16 0 1 61 45 10 30 24 3 1 32644
0.021138266 -0.14157316 0.59335756 62 17 3 0 0 0 0 1 175 28 1 0 0 0 1 10 58 14 12 4 7 4 7 7 15 4 2 14 42 10 3 8 79 5 0 1 2 0 0 11 175 12 0 0 2 3 2 51 81 8 5 3 27 31 4 26 30 4 1 2 32 43 2 13 81 13 0 0 1 0 0 6 175 54 1 3 2 1 0 9 93 27 9 29 36 8 1 4 20 14 26 24 16 14 2 5 35 17 1 0 0 0 0 0 175 130 20 5 0 0 0 0 37 45 129 90 4 0 0 0 1 6 171 82 0 0 0 0 1 32644
-0.09597785 -0.14873023 0.66503173 8 6 5 16 151 31 10 11 151 82 9 9 37 4 0 15 56 47 49 17 2 1 0 2 1 5 64 22 7 3 2 1 20 0 0 21 151 8 0 5 151 7 0 1 49 4 1 35 67 5 9 14 15 25 20 20 3 5 15 8 4 7 47 50 13 1 0 31 151 5 1 4 151 27 0 1 35 4 2 37 107 9 0 0 1 12 29 47 14 2 0 2 9 6 43 59 6 0 0 15 151 18 5 27 78 1 0 1 10 6 7 151 40 2 2 4 3 5 13 69 23 5 2 13 9 1 1 4 5 32644
-0.10705883 -0.14867143 0.67350262 13 42 12 3 10 84 52 8 103 148 8 0 1 7 15 28 15 148 53 0 0 0 0 1 0 114 22 0 0 2 0 0 14 6 4 43 54 22 9 5 129 36 4 3 2 6 14 53 17 148 33 1 1 21 19 12 0 148 80 1 1 3 0 0 14 21 17 15 37 16 14 13 135 34 6 1 1 3 10 33 18 37 26 1 7 29 8 4 3 100 32 4 9 34 4 0 3 127 93 1 0 6 9 5 23 128 92 0 0 0 3 10 37 61 13 2 9 6 5 9 1 4 39 37 29 13 3 1 5 32644
-0.086141258 -0.1429518 0.66014373 5 14 36 33 16 1 1 3 13 6 4 21 142 13 0 1 142 3 0 5 46 2 0 27 84 1 2 72 136 5 1 14 6 4 4 5 14 15 56 25 22 4 0 29 142 51 9 6 142 31 7 17 48 8 3 19 70 16 23 55 136 31 12 7 4 56 40 2 8 20 32 8 6 8 14 10 112 142 29 10 111 19 18 31 29 57 40 50 14 24 70 100 21 2 1 1 17 84 50 7 1 0 1 5 3 26 65 17 15 18 6 3 1 2 7 29 70 15 7 2 1 2 2 18 51 2 1 1 3 32644
-0.086141258 -0.1429518 0.66014373 39 1 1 1 1 5 5 23 71 13 6 2 1 2 6 37 17 17 7 2 2 25 56 17 1 0 2 9 21 81 38 4 18 3 2 2 18 29 83 93 28 51 37 53 119 17 22 33 127 136 27 10 6 8 15 11 11 19 25 4 4 76 38 3 136 24 10 11 84 11 18 59 51 7 3 39 136 15 6 21 136 47 10 7 18 3 0 43 13 17 67 20 5 3 3 4 93 1 0 30 102 0 1 76 62 1 0 46 136 1 0 9 136 4 0 1 7 8 6 32 7 1 3 4 6 14 41 30 3 32644
-0.063514352 -0.13177682 0.64941788 7 4 4 1 12 17 2 11 12 2 2 1 1 1 22 59 26 0 0 0 2 20 70 98 3 2 2 8 64 95 30 11 51 2 0 1 58 16 1 16 126 2 0 0 0 0 79 127 25 0 0 0 23 32 127 127 2 0 0 8 127 85 10 10 59 0 0 0 40 54 17 22 127 29 0 0 0 1 12 56 65 18 0 2 31 69 36 19 0 1 1 14 127 124 2 0 10 2 1 2 8 30 46 24 117 46 12 1 0 1 13 36 42 74 66 26 7 8 3 2 0 1 28 49 108 63 1 0 2 32644
-0.1126525 -0.1304801 0.68563092 17 2 1 24 39 25 36 21 136 16 0 0 1 1 1 65 169 20 0 0 0 0 0 52 39 3 1 3 0 0 0 2 53 12 9 68 25 1 0 3 169 41 0 0 0 0 0 18 169 34 0 0 0 0 0 8 55 3 0 1 1 1 0 1 69 3 2 8 8 2 0 37 156 19 5 2 0 0 0 89 169 15 0 0 0 0 0 52 49 1 0 1 1 1 1 5 33 1 1 3 8 15 42 47 94 64 21 23 24 6 3 13 169 81 2 1 0 0 0 4 36 2 1 3 1 0 0 1 3 32644
-0.037983045 -0.12449773 0.63570315 37 4 4 24 35 2 5 15 93 15 3 7 3 11 35 43 178 32 1 0 0 0 2 32 41 3 0 3 54 1 0 0 57 1 3 16 43 4 4 30 102 50 14 63 26 1 1 11 178 99 3 2 0 0 0 9 69 5 0 1 73 2 0 1 9 1 5 51 16 9 4 9 114 8 4 43 17 2 2 69 178 15 0 0 0 0 0 79 78 1 0 0 77 3 0 5 8 1 3 52 9 1 2 15 101 26 1 5 0 4 14 37 178 67 0 0 0 1 1 11 63 6 0 0 59 3 0 1 5 32644
-0.057954744 -0.11609855 0.65212238 11 0 35 90 29 0 1 14 13 8 16 117 117 1 0 1 116 49 14 12 6 0 0 24 44 57 18 13 2 0 0 8 0 5 17 43 35 22 3 0 32 3 2 24 117 104 8 5 117 17 1 2 11 15 6 30 29 6 12 32 22 3 0 5 28 24 40 14 4 13 13 34 33 8 3 0 24 117 86 65 70 5 9 17 20 102 55 38 12 3 50 117 20 6 0 2 28 2 2 2 1 22 74 98 36 3 5 34 31 59 28 98 6 2 5 27 72 117 42 10 3 0 9 39 31 117 117 19 2 32644
-0.057954744 -0.11609855 0.65212238 9 2 1 1 0 34 77 33 19 5 2 8 3 59 120 24 120 53 12 7 1 5 29 75 26 9 11 21 7 24 89 41 1 0 15 51 11 13 20 13 18 19 40 120 9 9 11 6 120 95 45 23 1 1 3 36 49 36 120 44 3 4 24 23 0 0 36 120 46 8 6 3 41 6 20 120 8 2 24 98 120 30 21 19 9 7 4 87 16 33 85 43 19 31 10 2 1 0 0 12 37 40 69 41 4 0 0 4 2 21 120 120 19 2 0 0 2 23 60 46 3 2 1 11 50 35 14 5 4 32644
-0.043226227 -0.11511937 0.64076722 3 100 129 11 2 14 4 1 33 43 129 29 0 0 1 26 27 34 129 5 0 0 37 77 40 47 89 15 3 1 14 56 3 15 13 2 15 89 10 5 59 129 30 3 7 39 4 16 129 129 7 2 5 4 16 54 21 4 39 70 70 31 7 24 1 1 1 1 3 73 33 13 47 11 4 2 5 123 49 38 129 62 35 12 4 6 13 56 15 17 71 51 57 41 2 3 1 2 50 31 2 6 3 2 44 14 29 11 3 17 12 43 37 11 9 5 3 23 32 89 9 6 18 10 6 44 40 10 3 32644
-0.11372199 -0.11763706 0.69116521 32 21 15 1 0 0 0 13 84 28 8 0 0 0 0 15 184 20 0 0 0 0 0 32 67 2 0 2 2 0 0 3 28 42 32 0 0 0 0 4 120 80 7 0 0 0 0 11 184 49 0 0 0 0 0 15 75 2 0 2 3 0 0 3 48 16 1 0 0 0 12 38 116 7 0 0 0 0 5 100 184 8 0 0 0 0 1 85 67 1 0 1 1 2 0 6 19 0 0 5 16 22 47 36 113 4 0 0 0 1 1 107 184 5 0 0 0 0 0 91 34 2 1 3 0 0 0 3 5 32644
-0.041509807 -0.11161055 0.64132184 25 45 118 19 0 1 1 18 35 42 118 4 0 0 36 78 43 45 98 34 8 1 16 64 4 5 111 78 43 12 0 2 38 79 18 2 7 55 8 11 118 115 11 4 6 6 11 45 25 6 50 86 105 54 5 18 0 1 118 98 44 61 0 0 22 3 7 4 4 82 34 28 118 45 35 14 4 13 21 65 18 22 85 52 44 51 10 7 7 4 5 6 41 118 3 3 50 15 29 11 1 3 3 40 38 17 18 2 2 23 27 77 8 5 12 6 9 54 53 11 6 1 1 25 34 40 10 5 4 32644
-0.047750652 -0.10988393 0.64844489 49 5 4 3 1 9 30 92 14 1 1 12 34 110 42 32 3 1 3 26 44 98 56 9 2 1 10 37 17 59 97 39 29 5 9 20 7 9 26 48 17 7 18 114 51 17 4 9 114 22 19 21 12 37 74 51 14 9 21 6 6 83 114 35 3 22 58 57 16 3 1 1 10 20 33 48 32 29 24 9 75 34 114 67 2 5 13 21 82 83 114 23 4 8 4 3 2 36 26 45 31 0 0 0 2 29 88 114 3 1 1 0 22 10 112 114 0 0 1 4 114 51 35 12 0 0 0 8 3 32644
-0.035143983 -0.10786135 0.63834941 13 4 12 54 20 9 4 7 63 13 18 8 6 36 53 34 4 7 13 3 18 70 117 27 63 0 0 0 46 37 28 62 9 15 46 39 10 13 11 6 54 41 117 51 1 2 5 11 117 63 54 5 19 31 10 9 86 3 1 0 35 47 30 117 1 7 69 94 5 0 0 1 106 15 68 48 0 0 1 30 117 59 44 3 0 3 2 26 117 28 17 1 1 6 8 86 6 1 1 22 19 0 2 4 105 2 1 1 0 0 2 65 105 10 13 2 0 0 15 116 117 4 3 5 7 0 1 116 5 32644
-0.11275624 -0.10996579 0.69448924 56 82 3 0 0 11 18 13 61 118 91 30 1 0 0 9 179 31 23 13 1 0 0 27 68 0 0 1 2 0 0 9 27 29 11 0 0 3 9 14 104 72 14 0 0 0 0 13 179 46 1 0 0 0 0 23 83 1 0 2 4 0 0 4 32 25 18 0 0 0 0 15 137 31 6 0 0 0 0 32 179 14 0 0 0 0 0 66 71 1 0 3 3 0 0 7 18 33 23 0 0 0 0 4 146 60 2 0 0 0 0 11 179 17 0 0 0 0 0 26 38 1 0 2 2 0 0 4 5 32644
-0.10087743 -0.10455664 0.68936187 1 1 0 0 2 8 19 7 22 1 1 9 36 21 8 29 153 0 0 3 7 3 3 153 73 1 3 17 24 9 6 84 4 1 0 0 4 20 20 29 70 1 0 0 21 62 14 34 153 54 10 2 1 3 3 88 67 25 31 57 68 9 7 21 14 39 31 3 2 9 8 15 45 14 1 0 7 36 28 30 153 117 45 1 0 2 8 39 87 70 89 20 5 1 3 85 33 20 8 0 0 0 7 46 33 20 2 0 0 0 4 19 104 22 3 0 0 0 1 84 114 5 3 0 0 0 0 153 4 32644
-0.021362938 -0.098798536 0.63600469 58 8 0 0 1 0 2 9 121 35 0 0 0 0 2 38 154 22 0 0 1 0 1 56 46 0 0 9 100 0 0 6 24 3 0 0 0 2 62 57 90 69 1 0 2 8 16 21 154 63 0 0 2 0 0 8 58 1 0 11 150 0 0 3 7 0 0 2 8 16 55 52 66 5 3 9 24 35 17 17 154 5 0 0 3 2 1 25 57 1 0 7 154 1 0 1 1 0 1 23 56 8 13 12 63 41 26 55 46 3 0 2 154 37 2 0 2 0 0 4 43 0 0 4 143 1 0 1 4 32644
-0.0036671013 -0.09511169 0.62574136 4 1 0 0 2 6 8 11 74 1 0 0 0 1 6 11 170 7 0 0 3 0 0 3 37 1 0 26 158 1 0 1 10 0 0 1 2 2 3 13 81 5 0 0 7 5 2 5 170 14 0 0 4 1 0 7 48 1 0 9 170 15 0 3 6 0 0 2 2 1 2 10 80 1 0 3 7 3 0 8 170 1 0 0 5 0 0 16 48 1 0 2 170 14 0 2 1 0 0 5 8 3 3 4 76 1 1 5 4 0 0 6 170 0 0 0 4 0 0 16 34 0 0 7 170 1 0 1 1 32644
-0.024577796 -0.090444289 0.63977051 23 21 30 59 138 15 1 3 138 82 18 4 2 2 1 8 44 20 10 3 11 66 7 2 3 1 0 1 6 49 68 33 35 1 1 3 138 138 10 17 138 16 2 0 4 13 8 37 64 23 20 8 1 1 2 6 15 22 35 34 13 3 13 11 5 1 0 1 138 117 17 15 115 19 6 2 6 16 17 64 26 15 43 79 14 0 0 2 2 14 138 76 11 0 0 0 2 6 1 5 138 34 1 1 14 37 33 15 16 4 1 3 1 5 55 102 27 0 0 0 22 8 21 50 23 0 0 5 2 32644
0.0047343131 -0.085119583 0.62550277 1 3 2 1 1 0 0 0 82 5 1 4 4 1 0 1 179 14 0 0 0 0 0 2 42 1 0 11 83 1 0 1 2 11 2 1 1 0 0 0 108 2 0 1 7 1 0 2 179 3 0 0 1 0 0 9 55 0 0 18 159 2 0 4 12 23 0 0 1 0 1 0 112 5 0 1 4 1 0 4 179 6 0 0 1 0 0 7 54 2 0 9 179 3 0 1 10 5 0 0 1 5 5 6 90 3 0 1 1 0 3 12 179 2 0 0 2 0 0 11 41 1 0 16 136 3 0 1 2 32644
-0.016297732 -0.081020705 0.6373468 5 0 1 35 15 0 1 70 1 3 8 92 33 3 0 5 5 3 2 14 47 58 10 3 57 10 0 0 4 14 19 27 3 1 17 123 6 0 0 10 25 18 33 79 8 0 1 4 85 21 5 1 5 24 73 45 12 7 4 2 2 10 123 76 4 3 19 77 10 46 59 4 31 5 5 9 1 5 33 62 96 48 72 40 8 1 9 38 5 108 123 19 2 1 20 10 1 0 0 0 1 123 123 3 2 0 0 1 4 111 123 28 1 5 26 57 68 123 58 6 3 106 83 23 16 49 43 3 1 32644
