# .PCD v0.7 - Point Cloud Data file format
VERSION 0.7
FIELDS x y z descriptor multiplicity
SIZE 4 4 4 4 4
TYPE F F F F I
COUNT 1 1 1 128 1
WIDTH 128
HEIGHT 1
VIEWPOINT 0 0 0 1 0 0 0
POINTS 128
DATA ascii
-0.035809398 -0.11333659 0.60941482 54 3 0 0 0 0 0 8 199 24 0 0 0 0 0 5 115 9 0 2 2 0 0 0 0 0 1 2 26 3 2 0 72 1 0 0 0 0 0 16 199 6 0 0 0 0 0 21 162 3 0 0 0 1 3 9 0 0 0 0 19 7 4 0 91 5 0 0 0 0 0 5 199 3 0 0 0 0 0 24 155 1 0 2 1 0 0 8 1 1 1 1 9 3 0 0 77 0 0 0 0 0 0 20 199 0 0 0 0 0 0 57 95 1 0 4 1 0 0 10 4 2 0 2 4 0 0 0 3
-0.023516417 -0.088234439 0.61402428 18 16 16 2 7 9 2 6 182 6 0 0 0 1 1 31 140 3 0 0 0 0 0 5 0 1 0 5 34 0 0 0 36 90 41 0 0 0 0 0 182 48 3 0 0 0 0 18 147 2 0 0 0 0 0 15 0 1 0 11 61 0 0 0 61 35 11 0 0 4 44 27 182 25 0 0 0 0 3 60 139 2 0 0 1 1 0 11 0 0 0 4 84 2 0 0 30 6 5 1 0 6 74 35 182 8 0 0 0 0 7 83 83 0 0 1 2 0 0 12 0 0 0 1 65 4 0 0 1
0.03035146 -0.15698567 0.55296522 13 6 0 0 77 64 0 0 16 2 0 0 0 1 10 53 1 0 0 0 0 12 93 72 0 0 0 0 2 75 51 3 19 2 0 0 132 132 0 1 132 5 0 2 8 8 1 96 25 9 35 47 14 6 29 85 1 24 37 11 37 77 17 1 10 0 0 0 132 132 0 1 132 43 3 7 43 43 0 8 30 28 19 63 76 14 9 8 24 36 19 13 33 9 10 29 0 0 0 0 132 132 0 0 40 49 1 0 101 84 0 0 21 57 12 2 9 13 20 10 3 3 11 33 20 5 18 28 1
-0.040350199 -0.12243397 0.60822725 90 7 0 0 0 0 0 4 198 36 0 0 0 0 0 1 93 12 0 3 2 0 0 0 3 3 0 1 3 0 0 0 109 3 0 0 0 0 0 6 198 20 0 0 0 0 0 3 138 5 0 1 0 0 0 4 1 1 0 1 1 1 0 0 108 3 0 0 0 0 0 7 198 21 0 0 0 0 0 8 143 10 0 0 0 0 1 5 0 0 0 0 0 1 4 1 79 6 0 0 0 0 0 4 198 13 0 0 0 0 0 13 119 2 0 0 0 1 0 9 1 0 1 0 0 0 1 1 2
-0.059403718 0.048402317 0.69808722 1 1 1 1 10 10 11 6 136 0 0 0 0 0 7 40 193 3 0 0 0 0 0 33 50 0 0 0 0 0 0 5 20 12 1 0 0 6 7 5 173 7 0 0 0 0 4 30 193 24 0 0 0 0 0 10 62 2 0 3 2 0 0 2 19 1 0 1 13 19 5 18 156 1 0 0 0 0 1 47 193 5 0 0 0 0 0 26 67 1 0 0 2 2 0 2 20 5 2 2 3 1 1 16 111 1 0 0 0 0 3 41 193 7 0 0 0 0 0 13 49 1 0 2 1 0 0 1 1
-0.12295514 -0.16047393 0.69107962 0 0 0 0 0 0 0 1 68 1 0 0 3 2 0 3 173 8 0 1 22 0 0 8 30 1 0 12 173 14 1 2 0 0 0 0 0 0 1 2 92 0 0 0 5 3 0 6 173 7 0 2 31 0 0 11 31 2 0 5 173 34 4 2 2 3 0 0 0 0 0 1 94 1 0 0 2 4 1 11 173 2 0 1 31 0 0 17 26 0 0 2 173 25 7 2 0 1 0 0 0 0 0 0 89 1 0 0 0 0 0 9 173 0 0 0 21 0 0 19 15 0 0 0 98 26 11 7 2
-0.095525444 -0.10864597 0.65560222 2 3 3 66 57 0 0 0 89 24 5 8 2 0 0 35 101 21 3 0 0 0 0 69 32 14 0 3 58 34 3 17 17 11 18 94 20 0 0 0 125 48 12 8 3 1 1 64 80 55 26 33 41 6 3 32 120 60 4 12 29 32 4 1 6 33 38 72 20 0 0 0 68 125 120 8 1 0 0 2 105 92 125 56 12 0 0 17 125 58 11 45 37 0 0 16 0 4 6 24 52 0 0 0 14 55 45 3 2 0 0 0 125 49 33 1 0 0 0 62 99 12 4 63 48 0 0 44 10
-0.095525444 -0.10864597 0.65560222 1 18 97 37 1 0 0 0 7 21 88 12 0 0 3 18 13 7 28 6 0 0 27 55 24 1 1 1 0 0 26 43 47 34 45 15 0 0 0 3 121 37 8 0 0 0 21 121 17 9 8 15 2 4 111 121 18 2 1 2 0 0 77 77 62 27 4 3 0 0 1 12 121 121 19 1 0 0 12 54 59 68 50 28 2 1 6 116 43 3 2 25 25 4 6 103 29 3 1 0 0 0 16 121 30 22 8 3 0 0 121 121 33 14 49 24 0 0 26 121 6 2 75 75 29 1 1 35 2
-0.075730801 -0.091264449 0.64757568 9 5 1 32 120 5 3 5 27 36 1 3 18 20 17 47 5 3 0 0 40 78 19 10 6 0 0 0 7 30 28 7 17 7 1 73 53 7 3 9 119 13 0 1 10 22 33 105 11 0 0 0 120 120 30 26 7 0 0 0 23 32 31 21 16 8 0 6 22 86 50 3 120 36 0 0 10 32 22 53 53 1 0 0 74 120 83 29 0 0 0 13 24 68 118 36 1 0 0 2 7 103 120 23 83 6 8 5 7 52 74 90 38 8 36 53 23 38 21 18 0 0 4 120 71 17 12 0 2
-0.048477113 -0.075712822 0.63524449 11 8 5 47 49 3 1 1 27 5 1 0 0 50 36 17 60 20 0 0 0 33 26 9 24 12 4 11 26 22 1 1 64 9 5 50 40 0 0 6 133 8 0 0 0 34 37 57 18 1 2 4 36 133 53 17 5 3 23 49 23 18 2 1 93 8 1 15 32 0 0 5 133 40 0 0 0 8 6 20 82 12 0 1 38 133 57 22 0 0 2 8 34 133 47 0 51 23 0 1 25 12 0 1 133 114 0 0 0 0 0 3 133 104 6 6 9 54 27 9 1 5 4 32 133 128 17 0 1
-0.12971926 -0.1121829 0.68221021 14 0 0 0 1 6 18 47 119 2 0 0 0 0 1 156 169 10 0 0 0 0 0 48 64 5 1 6 5 0 0 3 21 3 0 0 0 2 23 95 125 40 2 0 0 0 0 69 169 46 0 0 0 0 0 17 71 5 3 17 13 2 1 8 14 64 19 0 0 0 4 19 122 41 7 0 0 0 0 7 169 14 0 0 0 0 0 19 71 0 0 4 51 19 2 13 14 51 6 0 1 2 2 5 99 75 3 0 0 0 0 12 169 24 0 0 0 0 0 5 77 2 0 0 26 27 1 1 6
-0.11290216 0.026915781 0.79061604 1 47 65 0 0 1 38 7 6 34 14 0 3 3 53 13 4 1 5 32 35 9 13 13 0 0 1 16 45 27 2 0 25 128 128 0 0 0 6 8 128 128 38 0 10 4 1 9 26 5 1 16 83 48 1 1 0 0 0 5 38 24 0 0 71 27 7 0 0 0 43 113 128 24 1 2 3 6 6 128 27 1 0 11 70 63 8 12 0 0 1 21 64 14 0 0 128 10 1 0 0 0 1 119 114 0 0 0 1 4 4 128 4 0 0 41 79 48 8 10 0 0 30 128 65 9 0 0 1
0.019398034 -0.09430027 0.58572578 0 10 22 37 62 1 1 0 41 37 28 21 26 0 0 0 156 49 2 0 1 2 1 6 23 0 0 7 51 17 2 2 1 74 41 20 39 3 0 0 72 29 16 19 44 19 2 5 156 33 1 0 4 0 0 7 39 0 2 45 117 2 0 0 4 81 27 6 8 4 3 1 69 84 30 2 9 23 11 36 156 12 0 0 5 1 4 80 33 0 0 9 156 32 0 2 0 6 18 24 58 10 3 0 112 138 37 10 10 0 0 5 156 78 0 1 4 0 0 22 14 1 0 17 95 8 0 1 3
-0.11546734 -0.18011048 0.63563001 0 38 128 4 0 0 0 0 3 95 128 1 0 0 1 1 1 122 128 2 1 0 1 1 1 38 34 48 90 0 0 0 44 52 72 2 0 0 0 6 110 45 56 0 0 0 23 30 34 92 53 0 0 1 57 38 35 59 22 102 106 0 2 14 57 1 0 0 0 0 23 48 128 15 0 0 0 0 12 48 67 12 1 8 7 1 16 25 23 0 0 109 128 1 1 12 7 28 26 0 0 0 44 53 23 45 22 0 0 0 29 62 31 15 6 33 26 0 6 21 5 0 3 101 109 0 0 1 2
-0.029298425 -0.18757603 0.57740057 35 10 4 0 0 0 9 86 36 16 11 0 0 0 5 51 30 8 4 15 62 0 2 8 0 0 2 44 129 0 0 0 9 42 90 1 0 0 3 28 11 69 129 0 0 0 1 10 31 76 36 44 90 0 0 1 0 0 13 129 129 0 0 0 39 13 16 0 0 0 5 8 48 17 22 1 2 3 3 17 112 22 3 25 129 1 0 22 0 0 2 73 129 0 0 0 8 0 0 0 0 15 129 13 16 0 0 0 0 6 129 56 31 0 0 7 129 29 28 66 0 0 0 20 129 36 9 0 2
-0.029298425 -0.18757603 0.57740057 0 0 0 0 79 39 21 6 58 8 0 0 0 0 24 21 93 4 0 0 0 53 22 15 1 0 0 0 0 45 59 35 0 0 0 0 105 62 14 2 43 5 1 4 1 5 34 20 133 12 0 0 0 10 11 35 9 1 0 0 1 23 37 19 0 0 41 34 47 97 59 0 5 0 101 21 0 9 125 40 43 16 133 6 0 0 20 68 4 6 133 17 0 1 16 10 0 0 133 133 29 4 2 0 0 3 133 58 0 0 3 0 4 66 133 12 0 0 0 0 5 40 133 10 0 0 0 0 10
-0.079109848 -0.063908726 0.66241574 1 2 70 53 1 0 5 1 0 2 22 39 46 20 14 2 0 0 0 6 76 47 23 11 0 0 0 0 11 49 56 16 13 19 10 12 10 5 2 1 80 20 3 2 10 47 53 45 16 0 0 3 37 127 72 75 11 0 0 0 77 92 57 72 26 8 3 18 36 25 34 30 127 23 2 13 20 17 23 91 68 9 1 37 74 48 15 35 46 4 0 10 127 36 5 25 1 0 0 0 3 35 127 53 7 0 0 0 6 76 127 111 13 0 0 2 16 127 127 16 10 1 0 12 66 69 42 6 10
-0.057878315 -0.18498525 0.59439564 48 15 0 0 0 2 33 13 136 20 0 0 10 83 9 13 3 0 0 0 18 138 48 19 0 0 0 0 0 5 66 84 34 3 4 7 1 5 17 9 138 7 1 0 6 27 5 21 21 0 0 1 20 117 57 24 5 2 1 0 0 3 48 87 20 3 4 9 1 6 108 29 138 18 3 2 2 2 40 83 21 8 6 9 20 20 52 18 2 5 12 0 1 1 61 31 0 1 138 15 0 1 99 16 5 36 138 5 0 0 42 53 1 15 138 14 0 1 34 14 0 1 138 22 0 0 26 12 1
-0.13308924 -0.21546617 0.65369022 1 0 0 0 9 17 34 59 103 60 0 1 22 26 6 8 131 87 0 0 0 0 0 1 5 6 4 4 0 0 0 0 2 1 1 1 16 28 12 23 78 6 0 0 27 62 14 25 131 47 1 0 0 0 2 22 19 10 12 12 0 0 0 0 1 2 11 4 4 3 42 27 13 1 40 11 6 14 91 59 89 16 119 30 0 0 14 63 8 5 131 115 0 0 0 0 0 0 131 52 0 0 13 12 0 0 131 92 2 0 9 5 0 2 131 92 2 0 0 1 0 0 131 131 7 0 0 0 5
-0.056310833 -0.1879046 0.59289348 20 1 0 0 1 14 27 6 144 9 0 0 14 25 4 13 19 0 0 0 62 112 25 9 1 0 0 0 2 10 58 65 22 4 12 18 2 5 3 3 144 10 4 2 6 8 1 21 36 2 3 8 48 70 21 12 4 1 6 1 1 6 31 38 13 1 5 6 1 3 144 26 133 23 11 3 1 0 89 78 15 11 24 29 15 7 89 16 0 2 26 3 1 1 95 20 0 0 144 9 0 0 88 9 2 39 144 4 0 0 62 29 0 17 144 15 0 0 53 10 0 3 144 10 0 0 38 8 6
-0.078759491 -0.026156113 0.67973351 2 8 31 35 19 0 0 0 95 51 20 1 2 1 2 31 28 63 75 27 23 5 4 19 39 111 87 12 0 0 0 0 22 11 29 51 32 0 0 0 133 28 12 8 20 4 2 39 66 10 9 60 133 24 5 36 92 37 17 25 31 11 7 57 46 8 3 43 30 0 0 0 133 60 10 40 21 0 0 5 86 59 19 133 108 5 0 10 101 66 27 34 43 8 4 29 15 19 9 21 9 0 0 0 62 114 75 33 9 0 0 0 22 60 47 89 32 0 0 0 36 95 46 14 3 0 0 1 3
-0.0013340712 -0.19090432 0.56134808 0 3 100 5 2 1 0 1 36 35 92 10 2 1 0 0 92 43 6 4 103 6 0 0 0 0 4 21 141 16 0 0 3 1 2 1 6 12 1 4 77 11 3 1 6 14 3 3 141 23 0 0 102 9 0 1 2 0 0 0 141 28 0 0 3 7 8 2 2 1 3 3 61 1 0 2 7 4 10 16 141 2 0 0 83 12 1 34 3 0 0 3 141 26 0 1 1 2 2 0 0 0 137 24 16 0 0 0 0 0 141 56 60 0 0 0 57 18 27 85 0 0 0 1 141 91 18 1 2
-0.063658834 -0.13137548 0.62172663 23 40 80 4 2 0 0 0 13 34 100 5 3 1 1 2 140 53 32 3 0 0 0 25 61 5 3 123 30 0 0 12 24 38 60 9 7 1 0 1 48 48 107 3 3 1 0 2 140 40 15 34 20 0 0 19 30 8 6 140 87 0 0 4 15 12 12 11 8 0 4 8 107 15 16 9 13 2 1 14 140 20 3 39 70 0 0 13 7 11 5 94 140 0 0 0 6 3 2 9 11 8 16 22 78 18 4 13 12 2 6 17 140 47 0 9 73 3 0 11 3 3 1 16 134 12 0 0 9
0.032327116 -0.14325455 0.55977368 1 6 32 0 0 2 10 10 79 42 31 0 0 2 3 2 195 46 4 0 0 0 0 14 55 1 0 0 8 8 3 8 0 1 5 6 6 2 5 5 114 24 4 13 13 1 1 0 195 15 0 0 0 0 0 24 67 0 0 0 19 3 0 10 0 4 65 15 2 0 0 0 155 14 26 25 7 0 0 5 195 4 0 0 0 0 0 36 58 0 0 0 23 1 0 6 0 3 28 11 1 0 0 0 177 27 17 9 0 0 0 7 195 3 0 0 0 0 0 35 36 0 0 1 23 0 0 4 2
-0.090177476 -0.1599893 0.62530756 28 22 22 13 2 3 33 26 64 18 11 3 2 5 71 49 147 10 0 0 0 1 6 24 51 2 0 0 0 18 42 18 97 42 5 3 2 11 16 39 67 33 14 23 10 13 32 26 147 31 3 5 1 1 3 11 91 38 4 0 0 1 4 2 71 30 7 5 1 2 141 57 54 17 1 3 10 24 101 45 147 7 0 0 0 4 22 59 74 25 3 2 1 0 0 7 2 42 75 0 0 2 147 35 4 38 28 0 0 40 147 18 44 7 2 0 0 26 147 45 32 2 0 8 10 12 35 13 3
-0.093735039 -0.048206788 0.68024832 78 10 3 1 1 1 9 58 16 1 0 9 113 70 32 28 69 0 0 2 72 37 11 100 33 0 0 7 101 31 12 48 113 36 7 3 4 2 8 43 19 20 24 109 113 9 4 12 113 27 4 25 43 7 11 99 27 2 0 34 113 12 3 27 21 2 3 3 34 25 67 78 8 2 3 26 113 51 30 34 113 23 8 20 16 4 19 73 19 6 5 60 113 9 4 0 2 0 4 4 18 72 80 6 0 0 0 0 33 88 101 11 5 8 7 12 17 50 60 11 0 1 4 31 47 26 5 0 4
-0.093735039 -0.048206788 0.68024832 45 35 7 0 0 1 4 26 13 48 73 12 5 7 6 8 35 87 100 11 0 0 0 1 16 57 83 10 3 0 4 4 114 10 4 0 18 7 5 50 16 5 18 70 114 25 8 18 114 59 28 34 8 3 3 26 26 23 62 89 28 4 2 3 114 14 3 20 26 3 0 25 41 7 10 89 114 34 4 21 114 11 4 12 19 20 22 100 4 2 4 35 114 42 8 4 114 36 9 35 30 0 0 5 58 35 11 100 87 0 0 0 114 81 33 24 14 0 0 5 1 3 12 55 74 8 3 0 2
-0.071195185 -0.061246287 0.6581974 60 2 3 47 119 18 2 20 82 10 12 37 68 21 15 91 59 17 18 36 56 29 17 41 0 0 46 86 76 13 0 0 58 21 13 119 112 2 0 2 119 60 21 51 27 5 5 47 46 13 12 94 119 28 9 17 4 0 0 36 119 22 10 10 21 29 48 119 81 0 0 1 100 119 50 18 13 0 0 4 21 68 99 86 33 3 2 3 7 6 10 15 29 37 30 7 23 11 23 12 1 0 0 1 81 13 2 1 0 0 0 12 42 17 12 2 6 8 5 23 7 21 31 6 12 11 4 4 2
-0.019933462 -0.10831147 0.60331976 10 15 25 69 13 1 2 16 97 71 3 0 0 0 0 10 97 58 0 0 115 60 0 0 0 0 4 5 65 64 24 1 4 1 1 5 9 7 25 44 87 28 4 4 3 2 2 16 135 39 0 0 79 50 0 5 4 0 10 22 135 80 3 1 0 0 0 0 3 27 13 2 81 2 0 1 3 11 4 25 135 3 0 4 100 9 0 51 9 0 1 44 135 24 1 4 0 1 1 0 5 65 13 0 73 0 0 0 3 27 5 62 135 0 0 4 120 5 0 97 7 2 0 11 135 10 5 4 7
-0.12610087 -0.10006958 0.6809184 8 24 38 25 9 13 23 13 39 50 12 1 2 4 28 47 143 3 2 0 2 4 6 40 105 2 0 0 0 0 0 18 10 51 73 38 1 0 0 0 66 143 48 1 1 0 0 2 143 72 15 0 1 0 0 22 135 7 0 0 0 0 0 15 4 9 5 3 9 17 36 14 143 48 3 0 0 0 11 48 143 47 0 0 0 0 0 30 143 22 0 0 0 0 0 4 5 7 0 0 1 12 37 8 70 11 0 0 0 4 26 31 143 100 0 0 0 0 0 6 140 55 0 0 0 0 0 0 3
-0.071671963 -0.042651437 0.66693294 0 0 0 0 33 35 6 0 37 3 0 0 8 17 12 23 68 4 0 0 11 34 84 74 1 0 0 0 44 87 33 3 13 0 0 0 9 52 111 46 58 8 0 0 32 118 72 10 118 28 0 0 13 46 11 34 13 0 0 0 112 118 5 5 109 22 2 1 9 19 18 29 20 7 5 15 118 118 16 15 118 86 5 6 22 24 7 48 28 26 0 1 118 98 3 5 63 83 12 4 1 1 0 4 8 11 15 43 100 45 4 4 78 72 6 10 32 17 6 32 35 40 9 12 58 20 0 3 11
-0.071671963 -0.042651437 0.66693294 124 7 5 1 1 0 0 47 46 0 2 32 124 17 3 24 52 11 18 44 60 13 8 51 69 21 14 17 11 6 7 25 124 17 3 13 6 0 0 33 42 12 15 124 111 9 0 5 124 12 13 38 31 12 11 80 37 2 1 27 58 31 17 34 124 56 26 32 13 0 0 16 34 24 18 124 124 0 0 0 124 124 29 19 9 0 0 10 19 33 46 82 46 1 0 2 14 73 70 15 2 0 0 0 10 14 40 55 20 0 0 1 45 74 16 2 1 0 0 6 18 33 38 14 1 0 1 5 3
-0.1320976 -0.094902739 0.69441473 20 8 2 1 13 7 30 44 141 5 0 1 14 5 6 26 112 3 0 4 5 5 0 14 102 1 0 0 0 0 0 17 50 117 58 9 13 4 1 5 141 32 18 5 13 4 0 50 127 4 0 5 16 2 1 18 139 1 0 0 0 0 0 14 70 100 37 0 0 0 0 14 141 60 12 1 0 0 0 22 133 14 8 5 6 1 0 7 134 2 0 0 0 0 0 9 85 10 0 0 0 1 6 37 141 40 4 0 0 0 0 26 110 28 10 0 0 0 0 2 105 2 0 0 0 0 0 2 9
-0.12322465 -0.058097415 0.69911355 19 8 7 13 38 31 31 16 103 18 1 1 6 7 19 67 149 1 0 0 0 1 4 28 115 8 0 0 0 0 0 6 29 78 45 17 26 4 1 12 140 74 21 2 6 2 3 23 149 14 3 0 0 3 1 23 125 7 0 0 1 8 1 9 14 30 18 0 0 1 84 119 73 28 7 0 6 6 54 127 149 29 0 0 4 6 4 22 109 5 0 1 5 14 1 11 39 46 33 11 1 1 18 36 51 29 10 6 31 22 12 31 149 27 2 2 12 6 0 15 86 13 0 4 7 1 0 1 3
-0.048312008 -0.092549294 0.6275233 1 129 129 0 0 15 10 0 1 95 129 2 0 43 62 0 0 5 129 20 0 38 123 0 0 15 129 6 0 8 127 3 24 61 36 3 6 29 11 5 28 80 129 61 14 0 0 2 62 39 129 30 3 9 6 7 2 17 129 33 11 18 5 1 28 5 10 15 13 23 11 13 28 5 6 25 50 54 19 18 122 22 13 35 8 6 7 26 2 1 10 96 27 4 1 0 50 25 7 2 2 10 5 9 7 11 10 11 18 55 24 4 10 11 17 25 21 12 6 3 0 1 4 61 30 0 0 0 2
-0.048312008 -0.092549294 0.6275233 7 2 2 10 5 10 46 28 10 14 14 22 11 15 29 5 23 4 7 33 11 6 24 51 128 0 0 11 6 0 2 128 9 13 20 55 21 4 6 10 6 25 50 54 19 19 28 5 128 58 13 0 0 3 30 84 128 1 0 44 49 0 2 123 18 28 18 9 4 3 10 12 14 36 7 6 6 29 120 19 128 23 3 8 5 8 61 44 128 11 0 49 116 0 0 12 3 66 27 0 0 0 0 1 12 97 22 5 1 0 2 1 128 27 9 18 5 1 2 26 128 4 0 16 128 1 0 19 3
-0.085636139 -0.12671503 0.63798594 10 11 3 13 48 60 15 20 23 41 19 4 4 37 28 39 33 21 28 9 4 18 24 68 12 37 67 8 2 4 29 25 7 16 10 31 78 15 38 24 19 54 37 10 31 40 40 21 112 55 33 17 15 38 47 35 33 55 55 14 10 103 112 16 36 69 26 17 14 10 25 28 31 18 28 41 82 58 47 43 112 36 0 0 8 18 78 98 74 26 8 6 6 112 89 14 1 34 20 5 4 112 112 0 112 17 29 17 2 24 54 49 112 9 3 6 20 10 64 74 28 16 49 27 19 9 6 11 3
-0.12310293 -0.14967006 0.65647376 28 62 83 0 0 0 2 22 17 84 136 12 1 0 0 14 16 55 113 21 1 3 8 12 11 136 92 1 0 10 7 1 48 13 8 4 1 1 11 38 38 31 25 74 22 3 1 10 136 49 15 11 1 18 32 46 22 15 27 3 12 136 42 13 8 61 84 22 5 5 22 11 46 54 14 21 37 22 13 31 136 16 1 2 2 6 7 69 60 5 0 0 11 90 16 9 19 24 7 4 2 28 136 18 56 19 1 0 1 23 69 39 136 0 0 0 0 0 2 71 51 0 0 0 0 8 28 42 3
-0.079258561 -0.14472181 0.62474 7 11 8 13 26 28 26 21 71 18 2 4 19 22 25 44 104 44 2 1 0 29 54 25 8 4 3 6 7 60 50 11 18 29 42 26 6 9 27 6 125 14 5 7 5 3 37 75 50 19 19 16 27 10 34 37 39 12 36 27 8 6 1 18 6 1 1 0 0 125 125 8 125 19 1 1 2 65 113 35 27 15 3 9 51 28 21 8 58 2 3 3 5 10 19 99 1 91 19 0 0 109 118 0 4 12 0 0 0 125 125 4 6 1 0 0 2 125 72 17 52 0 0 0 0 7 13 101 3
-0.13153124 -0.15830748 0.65916967 11 64 88 3 2 1 4 10 3 41 115 11 13 7 8 7 39 132 71 0 0 6 7 8 15 132 97 0 0 0 0 0 18 18 17 53 14 3 4 7 132 39 18 13 1 19 34 38 16 34 35 1 6 132 47 11 0 121 128 9 16 47 0 0 24 21 9 40 45 27 12 18 132 24 4 7 2 7 11 52 59 8 3 6 20 128 11 4 0 2 5 3 22 132 19 0 36 29 6 1 4 13 22 19 132 2 0 0 0 1 5 62 33 2 1 3 3 7 24 19 0 0 0 0 3 69 35 0 8
-0.10172987 -0.10668806 0.66189712 11 24 121 88 69 19 2 9 11 16 87 121 6 0 0 6 32 121 35 20 0 2 3 14 13 97 79 11 4 7 8 4 18 11 7 37 121 51 5 13 53 18 17 73 55 35 8 14 121 42 10 12 20 33 19 63 57 43 1 0 21 38 22 53 52 5 1 71 100 15 8 14 89 6 0 1 19 104 96 44 121 27 1 1 9 44 64 55 39 15 42 40 13 12 18 56 21 1 0 3 25 54 62 15 64 41 28 8 9 17 22 20 20 31 36 22 12 17 12 7 20 32 33 41 28 21 43 10 7
-0.077877402 -0.020880006 0.68090516 11 8 21 24 0 0 0 0 136 37 6 8 0 4 4 41 30 12 21 23 41 89 17 16 1 2 53 48 82 36 3 1 34 11 10 23 17 0 0 0 136 43 6 5 4 1 7 47 38 19 28 40 45 74 37 21 4 0 7 44 89 127 34 6 42 9 2 11 18 8 2 5 136 65 15 2 4 3 5 27 32 26 72 71 46 40 21 10 14 4 50 136 71 33 6 0 35 7 0 9 16 7 2 6 133 114 11 2 4 2 11 32 23 93 16 27 99 29 14 13 20 5 2 32 136 11 0 0 12
0.035761774 -0.18249033 0.54275548 0 49 87 0 0 2 53 1 0 38 53 0 0 8 97 1 1 14 9 0 0 17 120 3 0 0 0 0 0 30 62 3 0 79 155 4 0 0 0 2 14 155 155 0 0 0 8 6 125 155 77 0 0 5 15 4 18 10 0 0 1 27 28 0 12 9 30 5 0 5 24 27 73 41 37 4 2 11 46 62 155 44 7 1 0 3 7 52 44 2 0 0 1 3 0 5 9 13 7 6 2 10 12 7 89 30 23 6 1 2 5 27 155 3 2 1 0 0 0 56 22 0 0 0 0 3 1 5 1
0.035761774 -0.18249033 0.54275548 6 7 1 2 20 12 4 2 97 38 0 0 10 10 7 1 153 28 0 0 4 3 0 3 19 0 0 0 120 57 0 1 23 10 1 2 7 15 26 37 88 10 1 2 28 54 49 29 153 16 0 0 6 5 8 48 32 0 0 0 96 44 0 4 11 8 1 0 1 5 153 80 14 3 1 2 12 10 153 144 103 0 0 1 10 3 91 153 11 0 0 6 79 19 1 11 0 0 0 0 0 0 115 32 0 0 0 2 1 0 78 26 0 0 2 5 13 0 16 16 0 0 0 8 63 4 0 0 1
-0.029631317 -0.1685008 0.58420169 18 26 28 7 16 1 0 1 83 29 20 7 11 1 0 1 39 2 0 11 84 1 0 2 51 2 0 6 28 1 0 7 17 4 7 6 29 4 0 1 153 27 6 3 11 3 0 13 44 9 5 15 88 16 0 5 48 11 9 36 35 0 0 1 7 1 0 0 7 80 153 1 51 62 21 5 2 35 119 5 7 25 48 58 28 23 64 1 5 12 57 39 13 12 37 0 0 0 0 0 0 99 153 2 0 1 0 0 0 108 153 0 0 0 2 3 1 85 153 0 0 0 2 1 0 55 153 0 5
-0.063110411 -0.027623162 0.66783518 10 1 0 6 7 2 1 2 92 11 0 1 1 3 63 60 12 2 14 24 13 49 127 30 10 0 5 11 51 87 25 3 23 2 0 3 51 62 13 3 127 24 1 3 5 8 6 60 43 8 32 56 53 123 28 21 9 0 15 39 97 60 5 5 19 0 0 7 127 26 16 24 127 37 2 0 3 4 22 100 38 33 23 14 62 92 37 18 5 5 2 18 127 60 5 1 18 28 9 19 75 24 18 38 44 75 22 0 0 0 32 120 9 22 21 18 66 24 45 23 5 0 0 13 127 26 2 3 4
-0.10237285 -0.13415068 0.64800394 6 8 21 19 10 67 55 25 22 21 23 72 27 5 30 43 116 24 35 34 9 0 1 33 36 3 6 6 6 35 20 33 11 20 30 38 17 16 13 16 30 18 17 127 127 43 10 11 127 48 18 42 15 5 3 48 56 10 34 127 19 7 4 29 27 86 33 10 10 7 11 23 20 19 14 17 118 114 30 17 127 41 63 73 19 27 30 43 31 39 88 127 15 0 1 6 15 29 116 22 0 0 16 20 15 24 74 18 7 8 6 11 1 1 13 52 47 25 10 5 16 18 15 20 9 9 25 69 14
-0.12605119 -0.079543777 0.69191694 8 13 20 1 0 8 61 115 58 15 9 3 17 15 63 53 150 13 0 1 4 3 2 21 41 0 0 1 23 19 1 5 53 18 2 5 5 11 32 52 57 15 1 10 105 23 16 19 150 39 0 4 15 2 0 8 58 7 1 14 25 4 0 1 116 125 30 11 5 1 5 6 43 25 40 35 84 25 7 20 150 21 2 2 12 6 2 64 54 2 0 4 44 6 0 4 24 134 53 2 0 0 3 2 54 85 110 25 2 0 0 1 150 89 6 2 1 0 0 5 38 10 3 9 23 5 0 1 14
-0.069549859 -0.075627826 0.65045804 1 9 25 21 25 35 9 1 3 15 17 6 13 66 5 2 3 2 0 0 19 68 80 87 0 0 0 0 6 68 123 95 24 13 17 9 8 18 30 66 41 11 2 3 19 86 37 28 123 47 6 0 2 13 70 123 12 12 16 15 20 89 95 94 27 6 14 26 15 4 22 68 23 14 19 53 43 33 10 13 123 123 41 1 1 3 3 27 71 61 77 21 5 3 9 61 4 26 61 32 7 2 2 4 1 22 52 88 16 8 1 0 64 123 35 4 0 1 1 12 62 82 72 26 0 0 1 27 1
-0.13087445 -0.12723866 0.67236948 3 0 6 23 12 20 44 25 57 2 0 0 1 2 6 105 160 1 0 0 0 0 0 160 104 2 5 8 2 0 0 67 2 0 3 14 8 22 43 44 89 29 8 9 17 12 11 46 160 54 12 2 0 0 0 53 68 46 47 7 2 0 0 13 4 4 3 4 6 16 26 43 63 4 1 3 15 52 36 46 160 27 6 4 9 5 6 55 96 49 20 11 27 8 0 10 10 47 39 7 1 2 5 15 42 17 7 3 2 5 7 12 160 68 29 14 3 0 0 4 142 35 41 22 9 1 0 28 4
-0.094899446 -0.13693237 0.64041269 16 12 15 67 29 3 13 23 133 22 23 24 6 0 1 37 44 1 3 8 8 44 26 38 2 1 5 14 21 73 13 5 35 18 14 124 104 29 4 5 133 49 14 28 8 3 2 45 58 11 40 133 27 5 4 33 55 38 42 55 13 13 12 17 22 7 5 10 95 105 30 18 133 50 67 69 11 17 25 40 32 42 106 133 22 0 0 4 80 86 62 47 2 0 1 2 4 11 44 17 9 11 7 4 1 1 14 60 46 21 10 4 16 16 24 33 13 9 23 79 10 24 17 11 5 25 60 42 11
-0.11662561 -0.033593774 0.70577562 5 3 1 3 10 4 8 7 56 33 1 2 4 1 10 60 115 115 0 0 0 2 11 22 85 56 0 0 0 1 1 1 18 4 0 1 18 52 33 47 115 11 0 0 9 33 20 87 115 56 0 0 15 55 28 27 115 115 0 0 1 2 0 1 4 12 9 8 51 75 31 35 100 115 13 4 52 55 3 12 68 107 5 5 44 25 1 2 115 115 0 1 9 4 0 0 14 70 20 35 50 15 0 0 43 45 17 14 57 68 9 13 72 47 63 25 9 4 3 15 94 80 15 12 5 0 1 7 2
-0.10486004 -0.082198352 0.67465329 45 32 25 79 7 0 0 8 12 5 11 126 28 2 12 78 19 4 15 32 15 25 27 110 12 2 1 2 7 36 103 34 7 62 126 52 4 0 0 0 23 39 126 66 5 0 4 28 126 46 126 40 0 0 1 66 67 4 1 6 11 17 37 57 2 28 74 11 1 5 13 6 45 16 67 36 6 19 18 11 126 126 19 1 0 2 4 32 56 71 40 30 22 2 3 14 2 14 26 26 7 5 10 3 17 45 10 0 0 7 10 7 71 119 9 0 0 1 2 5 53 109 62 5 0 0 0 10 3
-0.10486004 -0.082198352 0.67465329 27 22 5 4 11 3 3 19 60 9 1 6 14 6 2 28 127 43 2 0 0 0 6 74 30 67 3 0 0 7 50 34 6 0 0 7 9 7 22 44 64 29 5 22 17 13 50 16 127 57 4 0 4 25 22 44 17 127 21 2 14 66 10 6 9 0 0 1 2 5 83 127 18 1 0 1 3 45 127 117 127 35 0 0 2 74 127 47 16 33 16 21 30 119 14 4 60 7 1 0 0 13 52 106 32 32 22 3 5 20 56 56 2 6 8 19 38 63 61 4 1 2 10 46 105 27 9 2 7
-0.083561897 -0.012276702 0.69003707 0 4 13 17 0 0 0 0 27 18 25 27 0 0 0 4 160 22 5 6 1 5 13 82 23 2 23 22 19 54 44 19 0 3 44 35 1 0 0 0 95 29 36 55 4 0 0 4 160 76 6 2 0 5 6 65 24 22 21 31 48 107 17 14 4 13 12 30 13 0 0 0 160 14 5 28 33 0 0 12 160 41 7 0 0 2 16 103 17 15 28 36 32 77 44 21 4 8 3 12 20 5 1 3 149 14 2 14 19 9 2 11 160 68 24 0 0 2 6 31 8 14 75 59 25 26 13 5 5
-0.026381731 -0.084164001 0.61882079 2 4 10 6 6 24 77 15 76 32 4 0 1 3 42 34 156 21 0 2 5 0 0 24 47 0 0 48 134 0 0 6 9 44 25 3 5 17 73 10 35 22 9 37 60 15 43 13 156 43 5 9 20 0 0 9 50 2 0 39 156 0 0 0 15 52 21 8 3 2 10 10 38 13 13 41 44 12 11 17 156 7 0 2 28 2 3 44 44 0 0 11 156 4 0 2 0 54 29 0 0 1 1 1 29 46 29 0 0 7 10 7 156 16 2 0 17 2 2 23 30 0 0 0 156 16 0 2 2
-0.12339219 -0.031615417 0.71259332 4 4 6 17 6 4 11 11 120 38 4 1 0 0 14 22 152 53 0 0 0 3 2 3 24 12 2 1 5 23 7 2 72 1 2 18 38 10 21 95 104 4 0 0 29 61 70 87 152 18 0 0 3 6 2 14 41 3 0 0 2 7 3 8 118 57 4 3 61 13 5 95 87 25 1 7 112 49 6 37 152 14 0 1 17 9 1 13 50 5 0 1 12 7 1 4 95 62 6 5 68 11 7 32 96 31 4 11 88 3 0 12 152 21 0 1 18 1 0 2 54 3 0 0 11 9 1 3 4
-0.11173826 -0.12181456 0.6629045 38 16 10 20 42 52 21 10 17 10 11 16 15 50 115 37 18 3 7 22 34 26 69 46 15 12 4 30 47 9 2 6 19 12 11 24 79 36 9 10 43 28 60 115 37 4 4 9 77 33 48 76 66 12 5 22 9 40 32 92 115 8 1 3 4 28 59 35 54 16 4 2 30 16 8 40 115 51 3 3 115 59 30 92 75 20 3 19 14 9 11 115 115 13 12 11 15 26 22 13 22 111 114 21 13 13 2 0 45 106 24 13 5 13 14 36 68 74 4 2 1 0 2 25 25 14 45 33 5
-0.11173826 -0.12181456 0.6629045 0 14 116 65 6 1 0 0 6 28 62 42 24 22 40 26 42 53 29 6 2 2 19 54 9 36 36 13 32 18 14 7 28 49 103 6 3 4 13 12 20 82 100 4 1 57 42 13 87 104 29 5 6 27 21 16 38 36 36 15 10 24 27 17 92 116 16 23 15 6 12 13 64 116 31 5 16 116 60 23 116 38 11 14 12 40 33 52 17 12 34 116 72 15 12 9 19 69 5 5 14 51 50 17 62 116 23 1 1 4 36 38 23 74 18 11 13 12 6 4 3 7 16 65 77 53 30 30 10
-0.05180341 -0.024640359 0.660779 15 1 2 0 0 0 9 20 60 2 3 2 10 5 78 127 7 3 3 30 49 66 125 39 19 3 8 4 4 35 94 66 62 3 0 0 0 3 7 23 127 35 7 5 33 19 7 73 31 12 13 39 101 85 68 83 36 3 4 21 20 14 46 127 39 18 3 0 0 3 7 20 115 83 127 23 2 2 0 27 15 123 127 34 6 12 13 19 5 56 127 50 7 0 5 22 0 4 1 0 0 5 8 0 0 11 39 4 2 7 4 0 0 28 59 5 2 2 10 4 4 25 89 3 0 2 14 0 10
-0.05180341 -0.024640359 0.660779 1 0 0 7 6 0 0 3 4 0 0 4 6 21 33 23 0 0 0 5 6 31 43 0 0 0 0 2 10 12 9 0 36 2 3 7 2 0 0 11 125 10 3 2 0 35 89 92 8 4 27 10 6 105 125 13 2 1 5 3 67 125 60 1 66 1 1 1 9 1 0 59 125 16 10 15 22 24 19 125 11 53 118 76 66 63 34 6 3 32 38 68 125 41 5 4 109 2 0 1 3 0 12 57 125 44 9 0 16 38 6 54 1 18 14 24 75 125 24 1 10 7 7 43 73 36 7 11 7
-0.090080231 -0.16308515 0.62410378 5 25 13 56 41 19 18 12 48 34 11 52 38 12 4 5 161 37 0 0 0 0 0 3 127 12 0 0 0 0 0 2 8 34 45 94 46 28 11 4 51 86 11 47 19 20 8 5 161 86 0 0 0 2 0 3 134 29 0 0 0 0 0 0 9 6 7 11 87 124 17 13 50 3 0 1 5 52 55 61 161 10 0 0 0 10 14 39 126 15 0 0 0 0 0 0 13 38 38 9 18 23 13 11 23 5 5 17 13 18 24 28 161 10 2 4 2 4 4 27 86 12 0 0 0 0 0 2 3
-0.087093413 -0.068846896 0.66549402 14 3 3 3 3 1 36 78 4 4 0 2 9 7 114 84 10 0 0 7 25 16 45 56 3 0 1 3 8 33 94 31 51 14 5 5 17 12 21 107 95 26 4 3 19 48 39 46 72 5 0 5 33 105 34 49 44 12 10 11 20 22 37 35 63 9 1 41 114 19 14 47 114 28 3 15 30 14 3 34 43 20 8 19 114 56 4 3 29 33 48 43 29 3 0 0 38 32 10 23 114 23 0 2 85 113 89 24 28 4 0 8 4 14 104 114 40 4 5 4 1 8 106 92 8 14 7 1 5
-0.1086961 -0.14898913 0.64414048 1 6 125 75 1 0 0 0 4 8 125 52 0 0 0 0 4 8 125 44 0 0 0 2 2 5 102 17 1 2 2 2 43 57 88 21 1 4 9 23 28 22 54 67 25 5 2 7 100 24 39 36 3 0 3 38 25 9 6 3 3 31 45 31 21 9 5 31 11 18 53 108 26 18 12 125 109 14 8 23 125 71 9 18 10 0 1 29 48 18 5 32 10 6 15 42 7 17 16 35 30 16 6 18 16 19 9 89 118 62 4 2 125 94 11 11 7 6 4 18 55 16 19 106 63 1 5 19 3
0.023023665 -0.168569 0.55514205 2 30 24 2 12 53 2 0 8 39 8 1 9 72 23 0 1 31 11 1 16 57 26 8 32 166 4 0 0 8 26 6 0 15 11 6 20 80 6 0 16 50 35 7 34 53 9 3 93 31 22 5 12 26 73 96 14 25 9 13 46 97 97 50 9 36 77 12 10 11 0 1 33 11 17 11 29 25 55 34 79 64 50 7 15 16 40 60 19 25 56 30 28 11 26 166 20 28 12 27 22 5 0 2 57 87 19 2 3 3 10 62 7 7 8 3 13 14 55 166 3 1 1 0 0 0 43 166 2
-0.12798873 -0.21723972 0.63244808 5 5 11 1 0 8 86 23 92 7 2 2 20 23 16 19 180 13 0 0 6 0 0 7 21 1 0 1 48 1 0 0 0 0 0 0 10 35 46 2 100 10 0 2 99 38 11 3 180 28 0 1 10 0 0 3 30 2 0 1 58 0 0 0 2 0 0 0 17 18 9 8 94 4 0 3 164 32 4 7 180 14 0 0 14 1 0 7 33 0 0 0 56 0 0 0 4 0 0 0 19 6 1 5 69 6 0 7 165 5 0 1 180 21 0 1 15 0 0 0 30 1 0 0 44 0 0 0 3
-0.045850992 0.013241783 0.85626447 58 40 0 0 0 0 0 3 111 85 0 0 0 0 0 2 56 11 0 0 0 0 0 4 11 5 8 11 0 0 0 0 43 44 4 0 0 0 0 2 120 44 10 0 0 0 0 13 68 15 80 42 0 0 0 7 2 1 103 120 0 0 0 0 98 85 6 0 0 0 1 11 85 50 53 9 1 12 37 26 6 12 120 94 3 30 30 0 0 0 83 85 0 7 6 0 120 25 0 0 2 8 4 32 98 3 2 1 0 28 113 90 0 1 5 5 1 120 120 2 0 0 3 2 0 102 120 0 2
-0.045850992 0.013241783 0.85626447 0 0 0 2 15 124 128 0 0 0 0 1 11 55 128 26 2 0 0 0 0 9 61 54 0 0 0 0 0 33 71 12 3 1 1 119 122 56 25 3 64 4 2 39 47 35 66 47 8 0 0 0 0 61 128 23 0 0 0 0 0 6 128 44 16 6 2 128 93 0 0 0 128 39 2 24 6 1 8 19 69 7 0 0 0 34 84 16 0 0 0 0 0 16 94 9 16 3 0 79 29 0 0 2 128 66 0 0 0 0 0 0 101 38 0 0 0 3 6 2 0 0 0 0 0 4 22 2 2
-0.097007841 -0.088355377 0.66554272 0 19 32 14 73 22 0 0 7 7 11 8 52 20 0 4 123 26 4 0 1 4 4 70 63 23 0 0 6 38 39 49 30 93 36 11 24 4 0 1 40 8 2 15 58 16 3 12 123 34 12 6 1 2 2 109 64 83 43 10 1 15 40 55 65 18 1 2 8 7 13 50 33 12 5 27 33 33 19 15 123 123 17 13 4 3 5 11 77 90 40 9 16 83 40 23 14 1 1 5 3 5 13 45 4 2 4 39 39 12 64 47 116 68 7 9 5 19 123 50 123 123 16 0 4 75 41 22 4
-0.065335155 -0.085285202 0.64178848 0 5 48 53 33 39 84 6 1 8 31 26 37 51 26 4 17 49 32 4 2 38 52 8 115 115 10 0 1 9 9 74 30 47 115 46 5 1 2 9 107 16 15 10 5 15 37 100 18 2 0 13 37 115 112 52 50 113 16 2 5 33 33 25 37 10 1 0 1 8 74 74 115 23 2 4 8 4 35 74 39 12 9 47 115 48 4 11 3 9 67 50 37 14 8 9 51 18 14 11 6 4 28 33 30 18 67 45 6 3 35 45 6 13 89 72 45 15 0 1 0 0 9 75 78 13 3 0 5
0.036559284 -0.16649964 0.54700041 19 4 25 1 0 2 21 54 68 19 27 1 7 37 63 34 204 31 3 0 1 4 3 15 56 2 0 0 0 1 0 1 52 57 19 9 1 5 11 33 95 34 40 64 27 24 14 18 204 8 2 7 5 3 0 23 68 0 0 0 0 1 0 6 16 25 10 6 3 13 13 30 111 14 19 20 3 16 17 34 204 2 1 1 0 0 2 48 59 0 0 0 0 2 1 6 11 29 23 16 4 3 2 7 108 26 42 14 2 4 3 8 204 6 1 0 0 0 0 21 41 0 0 0 0 1 0 3 3
-0.092126697 -0.034725465 0.68555957 47 22 38 1 0 1 30 108 40 21 104 3 0 0 18 63 3 5 75 33 26 13 26 17 0 0 4 17 108 86 7 0 24 56 108 7 19 3 0 5 108 64 108 3 0 0 3 46 32 23 60 6 2 6 60 58 0 2 7 10 91 108 28 1 18 19 4 9 18 17 11 15 103 108 37 0 0 0 36 45 24 101 108 1 0 0 37 37 6 30 31 30 70 27 9 12 33 12 0 13 28 38 18 46 32 23 31 10 0 0 89 104 5 7 91 29 0 0 80 49 3 3 86 35 6 17 15 15 7
-0.092126697 -0.034725465 0.68555957 0 9 29 56 47 20 12 5 29 9 38 9 3 3 10 26 114 38 4 2 1 32 26 43 19 6 0 0 6 108 93 17 10 5 2 2 34 114 51 34 48 2 0 0 10 37 86 114 114 30 0 0 2 36 114 71 86 29 0 0 14 47 35 11 61 61 2 0 57 93 4 7 114 16 0 0 30 64 21 71 71 15 2 8 43 60 30 19 35 55 48 43 24 18 1 0 70 78 1 3 14 29 7 2 48 25 31 21 16 35 11 27 18 12 86 112 19 2 0 4 0 3 58 114 17 2 3 0 3
-0.049082816 -0.19779782 0.58529848 1 0 0 0 138 37 0 0 8 2 0 1 57 17 17 17 0 0 0 0 8 25 72 3 0 0 0 0 1 11 68 0 3 0 0 0 138 62 0 2 88 1 0 0 76 25 37 86 20 0 0 0 0 19 138 40 0 0 0 0 0 20 138 0 5 0 0 0 138 52 0 1 138 30 0 0 111 22 1 15 99 12 0 0 0 3 37 15 0 0 0 1 1 8 46 0 4 0 0 0 138 34 0 0 138 31 0 0 130 20 0 0 106 28 8 4 1 0 0 0 0 0 19 10 1 0 0 0 3
-0.04704386 -0.015457284 0.66112 0 6 35 4 0 0 2 1 1 9 45 2 0 0 18 31 0 15 46 0 0 11 83 22 0 25 35 0 0 13 36 6 11 0 0 0 0 0 13 14 116 4 0 0 3 1 47 130 17 1 0 33 81 64 130 98 34 1 1 20 27 44 76 88 28 1 0 0 0 4 8 11 130 43 2 0 6 3 2 61 81 20 14 30 112 96 37 31 33 7 6 15 16 21 58 130 18 4 0 0 0 3 8 11 121 69 64 6 0 0 0 32 27 58 130 50 6 8 4 6 8 79 130 18 1 1 6 21 5
-0.1028384 -0.073201068 0.67529505 35 13 4 11 6 9 2 7 105 39 12 4 1 6 5 24 33 115 19 4 7 13 15 12 17 72 4 1 4 39 26 4 34 14 7 17 6 24 75 13 118 39 1 0 8 30 25 58 35 79 9 3 78 118 15 14 37 118 55 16 7 23 3 0 6 0 0 0 0 102 118 39 90 82 1 0 2 111 92 23 18 98 23 3 21 118 23 4 1 29 57 27 63 118 10 0 3 15 7 6 9 23 19 12 2 10 21 26 20 69 54 3 3 27 42 17 77 52 17 1 4 4 60 61 68 19 5 9 1
-0.1028384 -0.073201068 0.67529505 0 1 18 16 7 50 28 1 60 10 13 6 3 11 4 59 62 18 8 1 3 7 13 81 39 17 3 0 9 27 28 27 1 0 0 0 40 120 79 6 97 3 0 0 26 74 28 120 57 17 3 24 120 33 22 71 120 43 2 8 16 11 5 11 1 3 12 14 59 103 10 3 114 28 2 1 48 106 18 30 69 29 1 13 120 64 1 7 120 85 33 8 28 12 0 3 12 23 19 27 28 25 5 2 17 39 18 46 69 33 3 2 10 60 53 55 97 23 0 0 4 50 72 39 60 6 0 1 12
-0.1028384 -0.073201068 0.67529505 45 3 0 0 9 70 82 33 111 20 0 0 12 57 46 59 66 24 2 2 19 44 20 58 30 25 5 3 14 22 17 26 24 7 0 11 121 69 24 8 121 48 1 9 74 23 1 21 57 94 16 32 116 23 1 2 67 87 8 3 1 6 16 17 15 12 7 18 121 34 2 9 113 29 27 82 51 14 3 30 35 79 29 121 80 2 0 0 59 121 63 5 1 0 0 0 9 21 30 31 33 15 3 0 3 5 16 96 59 14 6 0 4 16 5 59 47 10 15 6 8 71 35 0 0 1 16 12 6
-0.040512085 -0.074136503 0.63044369 97 0 0 0 0 0 0 31 74 3 2 19 30 12 5 26 21 3 1 3 20 36 48 49 3 21 41 16 25 20 4 2 121 0 0 0 3 2 0 42 111 15 3 23 46 19 3 24 121 24 1 5 69 61 30 48 2 4 14 41 121 64 4 1 121 0 0 0 1 4 1 55 73 5 0 0 22 53 23 86 121 14 5 8 70 32 12 121 2 1 2 13 121 121 7 2 119 0 0 1 5 0 0 44 40 36 27 16 20 6 4 28 24 46 121 31 14 7 4 32 5 9 34 21 64 53 31 21 3
-0.023637354 0.043293446 0.67252696 19 1 0 0 21 5 0 2 77 8 0 0 0 0 0 17 158 55 0 0 0 0 0 12 158 58 0 0 0 2 4 3 32 2 0 4 32 9 3 8 110 1 0 0 0 0 5 77 158 39 0 0 0 2 13 47 158 97 0 0 0 0 0 0 14 1 0 0 10 33 45 27 117 9 0 0 0 1 22 43 137 30 0 1 3 4 4 7 158 94 0 0 0 0 0 0 16 21 3 7 10 3 8 7 50 14 1 0 0 1 10 14 80 9 0 0 0 4 5 8 158 64 0 0 0 0 0 1 3
-0.13559517 -0.19694707 0.65184116 1 30 52 36 100 46 10 0 16 11 46 74 57 31 2 3 126 3 0 6 7 0 1 47 30 0 0 0 0 0 13 26 15 66 32 34 74 94 36 9 40 8 15 27 95 126 10 2 126 16 3 1 8 3 0 19 30 27 13 0 0 0 2 8 3 126 126 55 104 4 0 0 56 57 114 79 67 13 0 1 126 28 10 5 6 0 0 6 11 42 31 0 0 0 0 2 4 12 10 14 115 0 0 0 114 32 15 1 0 0 0 8 126 3 1 0 0 0 2 35 13 4 1 0 0 0 2 28 2
-0.12250957 0.052758455 0.75692481 3 30 140 7 0 0 11 15 64 140 97 0 0 0 2 34 57 133 3 0 0 1 3 9 2 11 0 0 0 12 5 0 25 33 68 5 0 0 16 21 140 34 9 0 3 11 8 83 65 140 4 0 27 43 6 23 31 106 0 0 2 4 0 0 78 23 31 7 3 13 14 17 140 43 12 2 3 4 0 12 48 58 33 12 61 55 0 2 67 140 0 0 13 17 0 0 49 33 28 11 1 3 3 3 140 59 4 1 2 5 1 3 43 27 16 5 10 42 9 4 50 53 0 0 6 39 8 4 1
-0.12243366 -0.13637583 0.66304767 109 38 1 2 10 13 1 6 28 8 11 11 26 108 64 20 109 56 12 0 0 14 48 52 15 109 82 3 3 0 0 1 93 5 3 23 23 2 12 105 109 27 12 25 11 17 32 32 37 10 1 0 38 60 45 29 12 15 13 7 15 7 1 6 6 1 4 27 89 20 37 56 109 52 9 14 25 12 30 46 22 45 66 94 59 20 1 4 53 34 74 60 15 4 0 10 30 66 104 13 12 5 9 7 65 28 12 19 90 23 29 31 2 6 72 109 84 17 13 5 109 22 29 39 1 0 6 58 3
-0.058617294 0.0021586269 0.67957425 9 8 6 15 23 28 13 8 55 32 6 17 31 20 1 2 35 12 5 34 87 5 0 2 131 57 7 3 9 0 0 25 31 22 7 41 49 12 3 6 73 14 5 36 46 16 13 43 36 7 3 13 84 68 18 22 131 62 12 1 13 5 5 122 41 17 5 18 79 9 0 4 131 14 0 13 58 5 1 10 55 13 0 33 131 13 2 8 131 119 67 7 23 9 8 52 18 15 9 25 24 20 6 11 126 4 0 20 31 7 0 10 53 5 0 49 100 0 0 8 131 28 4 5 9 45 31 79 4
-0.063872576 -0.081873246 0.64420688 1 1 55 76 9 2 39 42 14 49 68 36 12 8 29 20 17 113 113 17 1 0 16 20 47 14 108 52 1 0 1 35 2 1 12 43 22 29 64 34 64 9 12 4 1 5 113 113 17 2 3 8 27 46 113 67 15 2 13 76 16 10 16 35 5 5 19 54 60 22 14 8 113 113 20 12 3 6 9 23 41 81 23 6 71 111 32 13 0 1 5 20 49 74 74 13 7 36 37 59 23 1 0 1 26 110 22 2 1 3 20 23 47 113 40 3 7 11 11 40 2 8 40 66 43 23 15 3 6
-0.10162845 -0.15067747 0.63687491 0 1 90 108 2 0 0 0 6 13 76 55 0 0 2 2 0 2 29 49 14 10 16 1 10 1 4 42 24 8 19 12 13 12 30 78 21 6 1 1 106 28 16 9 1 0 18 56 10 6 15 9 4 31 118 33 4 2 1 10 30 63 118 5 50 24 15 80 55 21 2 2 118 73 20 14 1 0 1 17 46 25 43 27 8 2 13 67 23 12 9 118 89 10 9 13 13 30 6 69 114 23 3 2 118 118 9 7 5 0 0 10 96 44 2 20 65 4 7 81 7 11 10 116 118 17 4 12 3
-0.12406769 -0.001660794 0.73436874 83 50 0 0 0 0 0 3 169 106 0 0 0 0 0 1 88 30 1 0 0 0 0 1 6 19 3 2 0 0 0 0 126 23 0 0 0 0 0 2 169 23 1 0 0 0 0 5 116 36 34 8 0 0 0 2 8 36 10 1 0 0 0 0 128 25 0 0 0 0 0 1 169 19 4 4 4 3 0 8 76 63 66 37 26 26 3 3 38 105 13 0 0 1 1 0 94 25 0 0 0 0 0 2 169 32 0 0 2 6 1 5 76 16 1 2 14 101 24 6 45 59 0 0 1 33 14 1 8
-0.12678599 -0.038820248 0.71837866 87 5 0 0 36 38 44 26 186 15 0 0 0 0 0 11 49 4 2 0 1 4 4 10 15 3 0 0 3 8 3 7 70 3 0 4 131 82 6 15 186 9 0 0 2 5 3 30 78 2 0 3 14 27 4 15 14 4 0 0 10 8 0 0 61 5 0 23 153 13 1 4 186 25 0 1 4 1 1 9 88 13 1 11 18 11 1 3 7 1 0 2 18 6 0 0 53 4 1 5 128 5 0 1 186 20 0 0 3 0 0 3 92 2 0 2 16 21 3 8 4 0 0 5 17 7 0 0 3
-0.088670909 -0.13787737 0.63410485 0 0 37 82 30 4 17 1 8 1 0 20 28 5 39 32 67 5 0 0 0 6 19 122 11 0 7 22 73 105 23 42 29 1 4 9 23 20 111 73 22 15 8 30 67 36 89 28 122 51 7 8 5 7 14 122 36 3 1 15 120 122 14 24 65 0 0 9 54 35 25 72 22 2 1 14 89 122 44 51 122 12 3 22 13 11 15 122 22 2 4 83 49 21 9 12 15 1 1 28 17 14 16 38 31 8 6 32 64 33 11 23 73 23 35 5 14 6 3 43 0 2 28 16 20 12 22 10 2
-0.05517 -0.018494058 0.66568482 3 0 12 47 1 0 5 21 71 32 5 12 2 4 17 78 60 83 8 0 1 16 40 73 13 27 11 1 20 81 13 3 62 0 1 10 5 6 18 116 39 27 5 3 95 65 50 62 116 80 8 2 13 6 9 16 31 11 5 31 60 27 1 1 116 67 5 0 3 9 4 44 32 43 32 0 45 102 108 22 78 20 28 26 38 25 93 40 10 9 80 116 35 0 0 0 23 93 24 0 0 0 1 0 23 116 106 1 0 3 8 0 11 55 29 85 87 6 8 0 0 0 18 59 45 0 0 0 3
-0.06227237 0.011949494 0.68748736 46 20 0 0 95 102 0 5 99 88 3 1 35 61 9 12 106 65 1 1 37 56 6 2 65 61 2 1 3 5 0 0 33 50 19 26 108 96 1 2 108 66 5 7 62 44 12 32 70 38 9 10 36 108 21 17 86 66 11 6 3 7 1 5 60 65 37 28 31 29 21 20 88 88 29 8 40 81 23 16 48 62 55 30 22 26 20 25 33 39 19 7 4 12 13 17 108 60 0 0 23 30 5 8 45 29 1 0 53 108 8 7 102 39 1 0 9 32 16 25 32 4 0 0 5 35 13 18 4
-0.042515337 0.023817189 0.67766047 84 54 1 1 23 47 10 10 28 22 1 1 56 81 56 29 60 31 1 1 3 27 95 46 102 33 1 1 7 13 7 9 81 108 14 7 58 34 0 0 39 90 20 41 111 22 1 2 75 111 20 12 11 12 14 25 111 34 5 5 4 9 13 14 49 41 10 3 111 42 3 25 71 29 12 20 33 81 33 39 111 47 0 1 10 30 22 47 90 10 0 0 2 18 25 28 57 22 0 0 108 59 0 6 95 49 2 2 52 51 6 12 111 43 0 1 33 28 3 4 68 27 1 1 4 5 0 1 5
-0.081967056 -0.042691786 0.67377174 6 32 91 50 12 1 1 8 58 84 53 4 5 0 1 28 23 32 10 76 92 0 0 1 60 72 22 27 23 0 0 5 15 32 81 7 1 0 0 1 117 89 50 10 7 0 0 18 48 22 15 117 117 0 0 4 3 90 69 32 32 0 0 0 12 7 3 1 0 17 75 4 79 106 62 16 1 12 41 15 7 22 71 117 43 13 44 3 0 8 16 18 9 8 7 0 6 0 0 2 22 55 111 29 15 5 4 1 14 46 117 87 2 1 4 4 6 77 117 24 4 0 3 1 33 107 31 15 4
-0.081967056 -0.042691786 0.67377174 22 71 108 20 2 2 0 1 2 5 94 117 39 2 5 2 5 33 117 74 10 6 7 0 0 3 98 61 2 0 1 0 10 31 94 11 0 0 7 12 61 1 58 40 4 20 65 104 4 0 17 11 65 117 71 18 1 0 5 3 9 10 21 12 24 1 0 0 0 6 45 18 117 26 0 0 13 17 21 41 40 4 0 0 117 117 70 14 4 0 0 2 12 30 117 50 23 1 0 0 3 40 114 48 117 11 0 0 9 55 44 20 68 5 0 1 28 51 40 7 34 6 2 18 55 27 27 11 8
-0.11289322 -0.14435901 0.6504159 9 22 10 72 37 1 1 1 3 11 7 39 97 22 5 1 20 121 32 15 31 24 2 0 26 115 78 4 3 0 0 3 10 38 74 51 27 0 0 0 71 41 29 9 32 50 39 24 8 21 20 8 121 121 32 7 0 94 120 18 41 18 1 0 22 21 48 35 14 3 29 49 121 39 14 8 28 4 12 56 27 3 3 18 121 98 33 3 0 3 8 7 36 121 121 4 11 0 0 0 3 10 75 103 39 11 18 15 20 28 36 40 21 15 43 32 23 20 13 4 22 5 8 7 4 28 80 28 1
-0.11289322 -0.14435901 0.6504159 5 43 95 27 15 3 6 6 22 24 16 7 20 15 41 26 25 27 29 32 34 12 23 18 2 13 80 92 12 0 0 0 40 120 105 2 0 6 11 9 120 97 29 4 23 2 3 26 31 4 13 68 120 32 12 10 11 3 41 57 23 20 38 28 38 13 0 0 2 115 116 17 120 120 29 8 8 24 17 10 30 47 35 25 77 43 29 10 22 0 0 0 11 41 78 56 3 0 0 4 29 117 60 6 37 23 2 0 25 120 24 20 86 20 5 1 5 11 7 45 34 0 0 1 10 21 10 83 6
-0.11695018 -0.056174956 0.69717765 2 11 26 15 14 118 34 0 57 14 3 9 35 118 3 5 106 36 24 9 20 23 5 24 0 11 108 19 27 27 10 2 20 22 25 5 25 41 39 48 53 2 1 4 118 118 4 11 118 16 1 0 23 53 16 22 8 4 12 1 18 95 118 9 0 7 113 16 10 2 22 17 12 1 22 34 118 45 32 16 102 34 23 0 8 15 28 30 6 14 100 2 0 6 33 1 0 4 15 0 0 0 108 33 0 0 2 1 1 23 118 10 0 1 3 0 0 14 118 7 0 0 10 0 0 0 118 6 6
-0.11695018 -0.056174956 0.69717765 0 19 49 0 0 17 36 0 0 46 101 2 2 10 10 0 0 91 120 1 0 0 0 0 0 44 120 2 0 0 0 0 2 65 63 2 9 33 54 0 11 17 22 57 117 38 18 0 97 41 41 20 11 3 18 45 6 4 38 5 1 38 72 15 80 118 49 12 10 10 17 9 60 35 9 98 120 0 0 1 120 47 8 23 24 2 6 27 19 20 72 31 9 25 40 9 23 10 17 11 17 46 85 14 22 17 4 55 120 20 6 2 120 120 1 7 16 5 5 5 18 59 26 11 10 37 42 6 5
-0.12001228 -0.08745382 0.6838485 7 2 2 7 11 11 18 18 57 0 0 2 6 4 43 128 14 7 11 6 1 19 128 98 4 9 11 14 9 13 128 42 49 6 0 0 0 4 16 33 128 27 3 1 2 5 8 99 35 21 35 11 9 23 32 37 10 6 33 19 31 38 20 17 27 2 0 0 0 0 22 46 96 101 21 0 0 0 17 38 11 51 122 30 14 11 14 15 0 4 128 24 6 8 10 4 0 0 0 0 0 0 128 44 5 3 0 0 0 7 128 106 2 2 3 6 22 88 127 20 0 1 13 5 7 18 128 15 4
-0.10365343 -0.046195976 0.68952322 8 15 29 73 75 1 0 0 121 12 9 54 49 0 0 13 66 3 1 18 121 1 0 7 55 55 10 12 52 1 0 9 11 23 107 66 14 0 0 0 121 19 13 33 22 0 0 19 62 8 6 43 121 17 17 11 53 6 6 9 35 11 56 91 11 7 16 14 1 1 2 4 110 107 50 11 2 2 12 7 14 47 121 64 26 5 9 8 7 41 121 1 1 1 31 36 27 0 3 2 9 40 19 59 18 11 11 1 26 66 85 61 1 5 36 8 16 33 39 105 1 9 25 1 0 0 108 90 6
-0.10291961 -0.059459753 0.68110979 4 5 20 23 4 0 0 0 41 92 39 11 2 0 5 7 5 22 88 78 9 6 5 10 5 4 67 22 0 0 14 79 11 0 7 9 1 31 43 10 81 9 7 3 2 25 58 116 29 2 11 7 21 116 64 81 48 2 6 9 12 5 13 116 11 1 0 1 44 116 85 11 116 41 0 1 35 52 12 32 83 19 0 1 97 90 13 25 83 32 1 5 40 31 5 29 2 2 0 36 116 20 3 2 116 28 2 18 68 8 1 36 72 22 3 11 116 27 0 10 64 93 4 6 35 10 3 0 3
-0.091725826 -0.057973452 0.67448187 49 6 9 57 11 0 0 71 7 0 26 115 33 1 8 47 15 4 56 55 4 0 52 115 21 1 2 5 11 10 31 105 41 48 91 115 7 0 0 12 115 21 16 115 16 1 7 98 46 14 3 5 5 1 48 115 11 8 4 68 23 1 8 36 6 11 38 22 8 6 11 1 115 115 18 8 0 3 3 6 29 115 105 20 3 1 1 6 20 14 46 112 12 0 0 20 0 0 0 0 3 29 19 5 4 30 7 0 0 10 40 58 0 66 84 5 13 47 49 15 24 89 68 12 5 7 0 4 2
-0.09664163 -0.06793645 0.67449129 60 6 2 0 0 4 5 77 41 7 11 12 26 31 14 43 95 49 12 6 9 7 9 26 24 10 0 0 16 77 30 10 112 17 0 0 17 19 11 119 25 9 2 49 119 34 19 41 119 51 5 26 43 5 0 18 57 18 11 3 24 19 0 5 110 57 0 0 19 68 12 7 46 35 0 8 119 97 1 1 119 100 11 4 60 45 2 8 32 54 61 31 5 5 2 2 24 38 4 10 66 44 2 0 31 88 20 19 78 41 0 0 5 57 33 27 119 40 0 0 1 46 119 32 2 0 1 2 3
-0.09664163 -0.06793645 0.67449129 1 0 0 2 4 48 121 37 69 4 0 0 29 121 40 22 121 16 0 0 31 45 26 44 52 4 0 0 39 53 10 45 16 5 1 11 34 23 25 13 51 13 2 51 121 57 4 8 121 43 1 3 57 15 0 21 42 49 4 7 114 24 0 2 30 16 2 21 82 14 5 2 43 4 0 58 121 29 5 55 121 16 24 44 29 4 1 98 37 22 14 93 121 8 0 1 14 57 29 25 31 6 2 4 20 9 4 31 67 24 20 12 25 22 32 102 24 1 4 9 15 20 16 104 19 3 0 0 2
-0.046308577 0.010960467 0.67343181 56 18 2 13 69 4 0 6 52 11 2 20 125 22 0 5 125 22 0 7 40 6 3 14 29 8 0 15 125 19 3 4 35 48 11 35 75 4 2 9 53 32 20 78 94 18 4 6 125 13 0 28 46 1 0 12 40 5 0 80 125 0 0 6 52 4 1 9 45 43 12 46 60 4 2 13 80 113 20 28 125 15 1 11 59 19 1 10 37 10 0 21 125 16 0 1 69 24 26 10 27 13 1 5 53 15 1 6 125 25 0 3 79 68 11 10 53 12 1 8 5 10 7 21 108 18 0 1 3
-0.11602354 -0.025191821 0.71004075 0 0 1 11 7 5 19 3 7 13 25 22 2 0 5 14 66 55 7 0 0 0 7 17 121 88 0 0 0 0 0 0 6 4 8 34 47 6 5 4 94 7 7 26 17 4 40 121 44 9 1 0 23 66 90 80 121 74 0 0 6 8 1 2 12 3 1 10 121 44 26 19 121 28 0 5 24 6 6 85 92 6 0 0 71 121 14 22 103 35 0 0 26 50 5 5 18 6 1 2 121 62 5 21 119 77 30 1 12 6 2 102 45 65 9 3 69 27 0 12 35 13 0 0 68 22 1 1 5
-0.11834303 -0.13268229 0.66032183 69 17 0 15 65 5 1 23 117 15 5 7 2 13 2 32 25 9 7 4 4 79 75 20 42 3 0 0 1 22 65 45 26 0 0 9 27 14 79 117 60 7 6 59 61 4 11 98 117 32 9 22 8 6 11 39 24 8 1 1 50 55 20 18 13 4 15 27 44 13 76 86 16 2 2 30 115 33 43 39 117 63 10 7 9 9 34 50 11 45 61 76 42 10 0 1 6 68 117 31 9 0 0 2 52 81 75 6 7 7 21 19 45 14 8 27 106 26 31 29 0 4 73 117 60 7 3 1 6
-0.039893448 0.0059302747 0.66598856 21 5 0 3 8 5 1 4 99 32 4 6 1 0 0 14 22 17 9 49 49 3 3 8 37 23 7 16 23 22 16 27 35 4 0 2 45 109 5 3 128 17 1 4 10 21 15 53 63 14 5 25 74 72 12 15 128 12 0 2 44 25 7 20 39 2 1 14 128 128 0 4 128 17 0 3 34 7 2 30 65 20 1 21 128 21 2 7 110 53 10 23 47 1 0 6 32 2 11 90 128 10 0 27 119 0 0 6 48 1 0 85 23 10 0 28 128 2 1 24 27 35 11 17 15 16 11 34 3
-0.11911654 -0.1562492 0.6491825 0 1 12 83 73 38 13 5 106 12 3 24 10 2 28 70 154 34 0 0 0 0 0 31 66 22 15 7 0 0 0 0 5 5 8 16 92 123 58 38 36 12 7 9 15 25 88 106 154 54 4 2 0 2 4 30 84 18 5 11 1 0 0 0 57 64 68 33 18 12 7 9 69 17 3 8 24 78 34 25 154 8 0 2 7 21 9 46 89 3 0 1 2 1 4 10 82 39 6 0 0 42 27 12 80 31 23 24 11 4 1 8 154 1 2 6 5 1 0 35 67 1 0 0 0 0 3 17 3
-0.10207376 -0.022215907 0.70118791 24 8 6 40 45 79 55 2 127 42 1 7 48 12 2 0 53 4 0 0 127 46 11 57 59 8 4 6 13 8 5 98 30 2 32 127 76 10 3 30 127 25 13 24 35 2 0 47 63 58 29 68 127 10 1 10 36 102 89 16 13 13 4 12 59 2 3 33 88 3 1 37 81 47 93 38 9 11 9 25 5 29 88 127 49 6 35 5 0 62 120 22 4 11 36 4 18 3 4 12 3 0 11 50 7 3 12 9 4 24 25 10 0 0 5 13 6 16 49 4 0 0 1 5 2 12 28 2 8
-0.10553029 -0.12806618 0.65430439 3 31 45 27 6 6 33 22 3 31 33 10 6 9 30 15 1 41 28 2 1 48 49 1 5 14 11 6 2 69 80 13 39 119 70 90 54 6 3 9 119 119 16 5 6 22 66 35 13 34 18 13 34 85 110 11 5 48 64 52 39 22 6 4 79 7 0 12 28 23 18 73 119 55 16 0 0 3 10 98 13 56 56 8 62 85 18 3 0 5 15 11 66 119 14 0 47 0 0 0 1 20 119 61 100 6 4 3 16 13 39 47 0 33 73 20 34 25 6 0 1 49 58 1 3 57 23 1 1
-0.035217643 0.012931697 0.66519105 70 31 8 1 1 1 5 32 23 27 20 39 102 15 9 10 94 58 22 23 43 14 25 16 7 9 17 65 92 15 3 0 60 45 13 6 1 9 18 32 30 32 36 69 44 48 22 14 118 57 10 11 32 47 55 39 4 2 4 18 87 106 30 3 118 27 0 2 9 14 16 28 67 12 2 12 118 76 16 12 118 23 0 6 82 8 0 29 42 22 2 17 118 17 24 11 118 10 0 2 16 2 0 35 38 16 1 25 118 6 1 10 98 89 21 21 47 2 4 10 45 27 11 35 76 3 1 5 5
-0.0050473809 -0.17135018 0.56750894 95 43 2 7 24 2 0 1 51 9 1 14 130 21 0 2 130 10 0 1 17 20 2 18 43 3 0 1 64 26 3 15 130 9 0 0 13 13 7 43 65 4 0 0 130 89 9 17 130 13 0 1 30 18 1 19 23 5 6 13 77 18 2 12 130 33 3 6 8 8 3 21 66 20 5 63 130 70 5 12 130 47 2 18 51 12 1 20 31 11 6 23 71 20 1 5 54 58 29 11 2 0 0 0 26 26 44 97 61 0 0 0 130 33 1 12 22 8 0 6 40 9 2 9 51 23 2 14 4
-0.068295836 -0.051844474 0.65927237 0 0 1 3 2 1 2 0 0 0 12 5 0 0 14 8 0 0 16 5 0 1 43 20 7 17 18 3 0 11 63 23 10 0 0 2 18 5 2 5 103 1 2 3 7 7 85 139 34 1 1 0 26 55 139 108 41 1 0 0 47 63 113 88 27 1 0 0 28 8 0 0 139 24 0 0 20 6 6 32 127 11 0 0 139 36 12 14 119 13 0 0 120 19 1 5 13 0 0 0 16 13 9 1 139 37 0 0 11 6 3 3 103 17 0 0 104 44 7 10 80 5 1 2 88 15 5 19 6
-0.04641211 0.0055258125 0.67292845 31 7 0 6 113 23 2 4 124 27 0 2 33 4 0 4 26 9 0 16 124 13 1 1 103 71 12 4 55 4 2 19 29 22 21 53 83 12 3 2 124 12 1 15 37 3 0 17 30 5 0 77 124 2 0 4 124 18 2 21 38 3 12 73 33 4 5 13 53 85 22 15 124 16 1 9 34 21 1 9 22 5 1 24 124 24 0 2 124 86 0 2 32 4 0 6 43 6 0 5 110 21 1 2 103 53 9 3 51 11 1 4 14 17 16 20 101 35 1 2 19 43 0 2 27 10 1 1 11
-0.098729193 -0.03357961 0.69066238 39 4 3 8 16 5 36 25 15 13 4 24 39 53 31 8 99 8 1 15 46 28 8 26 21 0 0 23 136 7 3 10 70 3 0 10 23 18 5 4 18 8 7 136 84 10 4 6 136 35 11 57 46 2 0 0 36 7 2 1 136 24 0 4 38 68 61 19 26 5 0 0 30 2 30 96 136 32 0 0 136 6 1 14 54 5 0 2 33 0 0 22 136 15 1 0 1 44 90 10 5 0 0 0 31 3 54 74 22 0 0 0 136 20 4 12 21 0 0 1 23 7 7 22 111 16 12 8 7
-0.076480508 -0.011811219 0.68400645 4 7 3 20 27 4 1 2 62 11 0 28 30 0 0 7 134 79 28 0 0 2 31 63 3 29 106 0 0 16 84 7 17 6 0 6 66 13 2 3 98 14 0 7 62 2 0 7 134 89 0 0 0 1 25 74 32 27 5 0 0 17 104 19 24 14 9 20 58 9 0 1 100 12 0 15 62 2 0 8 134 95 35 7 0 0 0 74 25 18 133 57 1 4 7 23 8 10 10 15 13 20 20 12 41 16 0 6 33 20 2 8 134 91 25 4 0 0 13 112 8 12 49 27 2 24 117 42 3
-0.045940459 -0.08647231 0.62991095 1 5 83 114 11 5 0 0 107 88 42 17 0 0 1 2 80 56 1 1 0 3 37 22 6 12 8 72 33 16 39 11 2 6 20 25 74 23 0 0 83 123 31 2 0 0 3 7 123 123 5 5 12 8 4 28 12 8 5 93 123 29 3 7 3 1 2 4 70 95 32 7 55 17 5 1 1 6 73 64 123 123 16 2 14 14 10 52 14 43 21 15 123 93 3 7 4 1 4 31 27 32 13 4 7 5 6 4 2 4 25 18 37 89 13 1 2 1 3 22 5 57 50 24 56 8 0 2 4
-0.093372613 -0.14258197 0.63616228 67 22 4 2 0 0 4 85 115 63 2 0 2 37 21 87 2 3 0 2 51 132 32 2 2 1 0 0 13 126 80 5 35 49 22 49 54 16 21 33 132 132 12 10 9 3 3 18 40 16 1 73 123 24 3 4 20 1 1 12 43 64 32 18 22 1 0 7 54 78 85 29 132 17 0 4 18 21 18 60 46 6 2 29 93 39 18 28 14 0 2 23 23 23 15 58 5 0 0 3 60 43 34 20 117 43 14 5 30 20 4 10 16 19 70 47 6 10 5 3 4 2 50 63 2 1 2 8 16
0.026365817 0.060283393 0.64870811 4 168 51 0 0 1 0 2 0 168 39 0 0 0 0 0 1 54 5 0 0 0 0 2 0 0 5 16 21 7 5 1 11 37 7 0 10 8 2 6 18 168 57 3 16 3 0 0 127 168 18 0 0 0 0 2 20 9 0 3 54 19 0 1 11 1 0 3 17 1 0 0 83 23 3 4 52 2 0 18 168 58 0 0 2 0 0 75 47 3 0 13 58 3 0 10 8 11 0 0 11 1 0 0 103 0 0 0 28 5 1 46 168 0 0 1 3 0 0 107 20 0 0 17 61 0 0 7 4
0.026365817 0.060283393 0.64870811 1 0 0 2 0 0 5 41 101 27 0 6 9 2 4 6 166 63 0 0 0 0 0 0 15 2 0 0 0 0 2 1 2 0 3 19 1 0 0 7 88 25 4 42 6 0 1 18 166 65 1 1 0 0 0 36 35 3 1 3 0 0 2 3 0 0 0 36 6 0 17 38 27 1 1 21 1 0 63 166 159 3 0 3 1 0 19 166 15 0 4 46 18 0 1 12 0 0 0 3 2 0 69 166 0 0 2 8 0 0 78 166 1 0 10 57 1 0 14 69 3 0 6 51 17 3 10 10 2
-0.040948629 0.018386699 0.67166042 24 7 11 15 49 56 22 16 115 27 7 12 38 19 8 36 51 7 0 22 106 58 18 16 8 0 0 4 36 51 49 9 48 8 1 40 115 11 2 13 115 25 3 19 77 3 0 44 76 18 5 58 115 2 3 15 98 20 1 7 24 46 54 18 22 3 0 67 115 3 2 22 87 86 20 27 40 9 22 48 47 37 32 87 74 12 6 16 105 55 14 10 16 6 8 25 40 0 0 41 115 1 0 18 92 2 1 5 53 25 27 76 62 1 2 12 80 32 9 44 58 6 3 1 9 27 29 58 3
-0.040948629 0.018386699 0.67166042 11 13 13 37 118 12 0 0 85 63 17 20 48 4 1 4 52 14 16 54 118 7 0 3 118 9 0 10 22 1 0 15 10 7 13 39 75 61 15 9 78 23 10 14 32 42 33 66 70 5 10 33 70 107 22 13 118 13 1 13 39 7 1 13 19 30 32 8 94 56 4 3 118 14 4 5 60 36 6 19 72 12 0 10 118 47 3 4 118 46 10 6 39 14 1 7 5 33 94 17 21 5 0 0 109 75 29 8 19 8 0 6 26 21 17 20 118 55 3 6 29 49 18 7 15 15 14 32 3
-0.068440676 -0.1422313 0.62007177 0 3 13 35 9 9 27 10 111 100 8 3 2 5 30 24 106 109 11 2 7 6 4 18 21 5 0 2 41 22 6 19 5 5 4 9 7 28 64 30 39 22 4 5 21 10 40 27 131 68 12 2 1 0 0 15 36 19 39 10 25 8 0 1 8 17 12 22 10 92 126 6 25 14 2 2 17 31 92 22 111 42 45 6 3 8 15 22 32 44 73 6 2 0 0 1 0 0 0 0 0 131 131 1 1 0 0 0 0 131 131 5 9 3 10 6 6 131 123 6 61 13 5 1 0 24 43 14 1
-0.058069646 0.02018249 0.6870777 119 4 0 13 90 1 1 27 88 7 3 14 119 32 10 28 119 2 0 3 63 11 5 60 59 2 0 3 38 32 13 27 119 8 2 22 64 6 8 119 66 18 9 54 119 37 11 40 119 16 0 10 37 7 1 88 66 4 0 13 38 5 1 26 102 77 18 9 22 11 6 101 25 16 21 24 119 53 10 38 119 23 3 3 19 11 6 68 48 26 8 14 18 5 2 13 40 54 17 3 17 13 31 52 27 21 29 22 21 25 18 13 49 38 38 5 5 4 10 36 44 21 19 8 6 4 3 17 6
-0.058069646 0.02018249 0.6870777 5 2 5 38 45 13 7 6 8 6 12 40 33 38 30 6 15 17 7 31 39 21 18 14 14 36 39 38 26 26 11 3 23 2 1 27 55 14 6 14 18 5 9 94 114 10 4 4 114 18 11 48 21 15 20 37 22 5 14 72 81 101 21 12 34 2 1 53 58 1 1 23 42 4 4 114 114 1 1 27 114 24 18 57 53 11 12 64 34 7 22 114 56 3 3 38 26 31 23 68 74 1 1 3 107 12 5 80 95 0 0 30 89 9 6 72 114 8 5 33 109 0 0 43 75 1 0 61 1
-0.0050095916 -0.177237 0.56690562 13 1 0 5 23 2 0 2 131 19 0 4 19 2 1 19 45 4 0 10 131 15 1 8 131 0 0 0 18 11 1 34 29 0 0 2 21 7 1 11 131 3 0 3 20 24 13 98 59 1 0 12 131 97 12 26 131 2 0 3 29 8 1 37 41 4 0 3 16 0 0 1 131 57 19 35 20 3 0 8 62 21 13 131 131 20 1 8 131 34 3 19 29 6 1 26 6 6 1 5 11 0 0 0 25 61 64 26 3 0 0 0 57 10 41 74 25 0 0 3 131 8 0 7 17 7 1 17 9
-0.06215471 -0.11685251 0.62697923 1 12 91 123 29 8 8 12 9 13 123 91 16 2 15 67 40 11 21 24 11 2 9 57 13 10 19 12 14 19 7 9 1 1 9 69 43 10 32 73 22 11 19 85 45 3 35 118 123 29 18 19 3 21 36 77 10 1 0 0 1 51 97 56 9 9 49 40 33 13 9 43 39 5 14 88 70 10 25 59 123 36 5 8 5 8 19 106 41 64 27 6 1 15 46 39 4 9 38 12 84 36 20 28 40 32 16 10 11 8 23 42 64 107 47 35 4 0 2 45 5 49 105 61 3 0 0 2 5
