# .PCD v0.7 - Point Cloud Data file format
VERSION 0.7
FIELDS x y z rgb
SIZE 4 4 4 4
TYPE F F F F
COUNT 1 1 1 1
WIDTH 975
HEIGHT 1
VIEWPOINT 0 0 0 1 0 0 0
POINTS 975
DATA ascii
0.026514284 -0.17234285 0.57999998 1.5181576e-38
0.067454092 -0.17390704 0.58340001 1.1321644e-38
0.018791072 -0.16856679 0.58462501 1.5469019e-38
0.022707816 -0.16738877 0.58279169 1.5096627e-38
0.027558647 -0.16742118 0.58057898 1.5101676e-38
0.031012245 -0.16626666 0.58000004 1.5005494e-38
0.023486666 -0.1634078 0.58440006 1.5192427e-38
0.027277064 -0.16247414 0.58258331 1.5099155e-38
0.03222258 -0.16241741 0.58041173 1.4722063e-38
0.035904761 -0.16074286 0.57999998 1.4714176e-38
0.063713476 -0.16113715 0.58028573 1.3456219e-38
0.067040242 -0.1616893 0.58175004 1.2720103e-38
0.028168809 -0.15781668 0.58425003 1.4901042e-38
0.032587506 -0.15770602 0.58150005 1.4899595e-38
0.03724711 -0.15698478 0.58026665 1.489996e-38
0.040692061 -0.1555873 0.58000004 1.4440774e-38
0.063403755 -0.15764113 0.58206248 1.3545174e-38
0.067359634 -0.15738106 0.58212495 9.9535127e-39
0.029157143 -0.15395716 0.58499998 1.4728188e-38
0.032866072 -0.15267289 0.58329165 1.4812448e-38
0.037558846 -0.15236486 0.58131582 1.4807756e-38
0.04134078 -0.15235394 0.58018178 1.4624085e-38
0.062530771 -0.15244089 0.58231252 1.3633037e-38
0.066388048 -0.15365851 0.58400011 1.1980738e-38
0.033204287 -0.14821588 0.58433342 1.4445107e-38
0.037288934 -0.14726433 0.58295834 1.471628e-38
0.04214124 -0.14733125 0.58070004 1.4715562e-38
0.046400003 -0.14527619 0.57999998 1.4807039e-38
0.061466943 -0.1472932 0.58142853 1.4274456e-38
0.037732273 -0.14289059 0.58455557 1.4715921e-38
0.042706817 -0.1425475 0.58240002 1.4623368e-38
0.047454562 -0.14249526 0.58058822 1.4623368e-38
0.051213607 -0.14164627 0.58000004 1.4623727e-38
0.058741432 -0.14208286 0.58049995 1.4717035e-38
0.061170947 -0.14291458 0.58389997 1.4639275e-38
0.037885714 -0.13984285 0.58499998 1.4898516e-38
0.042672489 -0.13791545 0.58444446 1.4806321e-38
0.047252193 -0.13754454 0.58263993 1.4806321e-38
0.052515544 -0.13764605 0.58043998 1.4623009e-38
0.057460804 -0.13766241 0.58100003 1.4439712e-38
0.061166141 -0.13773121 0.58444446 1.4549948e-38
0.04364286 -0.13390002 0.58499998 1.4898157e-38
0.047616858 -0.13284029 0.58410001 1.4714845e-38
0.052685179 -0.13254543 0.58232003 1.4530815e-38
0.05752825 -0.13280922 0.5826667 1.4347873e-38
0.060728572 -0.13427143 0.58499998 1.445739e-38
0.048557315 -0.12825464 0.58481818 1.4715203e-38
0.052317716 -0.12745371 0.58439994 1.4623368e-38
0.056368697 -0.12791386 0.5844667 1.4438986e-38
0.0011238095 -0.20565715 0.58999997 1.5357397e-38
-0.005057143 -0.20116191 0.58999997 1.7941295e-38
-0.0021515079 -0.20212245 0.58925003 1.7935908e-38
0.0022392066 -0.20221809 0.58816665 1.7839763e-38
0.0053949207 -0.20221651 0.58600008 1.7010732e-38
-0.005057143 -0.19779047 0.58999997 1.7218951e-38
-0.0021180953 -0.19758013 0.58844441 1.7492632e-38
0.0020498943 -0.19766101 0.58738887 1.7582647e-38
0.075342856 -0.19700763 0.58600008 1.4357607e-38
-0.002332231 -0.1924383 0.58873677 1.6756534e-38
0.0021262858 -0.19241874 0.58766663 1.6755812e-38
0.0050228573 -0.19031048 0.58600003 1.6388093e-38
0.075394295 -0.19267313 0.58640003 1.3357893e-38
-0.0016839561 -0.18790551 0.58923078 1.6107182e-38
0.0022395717 -0.18764691 0.58814996 1.6200819e-38
0.0064731655 -0.18701716 0.58658832 1.6015342e-38
0.073748305 -0.18728083 0.58600008 1.2156467e-38
0.075471431 -0.18895809 0.58700001 1.3729925e-38
0.0026565718 -0.18288188 0.58939993 1.6207313e-38
0.0070678792 -0.18218563 0.58745462 1.5843219e-38
0.01060381 -0.18026476 0.58600003 1.519857e-38
0.073947623 -0.18333428 0.58600003 1.1598238e-38
0.0076613142 -0.17769569 0.58876187 1.5458895e-38
0.011394191 -0.17695478 0.58649999 1.5547839e-38
0.073328935 -0.17710273 0.58662498 1.1230174e-38
0.00870369 -0.17351775 0.589625 1.510094e-38
0.012218745 -0.17247088 0.58747375 1.5377173e-38
0.015440635 -0.17059112 0.58600008 1.529184e-38
0.068793051 -0.17164618 0.58630002 1.2061038e-38
0.072700344 -0.17288961 0.58789474 1.2340145e-38
0.012976666 -0.16782264 0.58878565 1.5010924e-38
0.016651059 -0.16707699 0.58716673 1.4913671e-38
0.068676606 -0.16788504 0.58900005 1.2075084e-38
0.071777485 -0.16799194 0.58952636 1.2350965e-38
0.01366508 -0.16417049 0.58966666 1.5193892e-38
0.017372623 -0.16253637 0.58850002 1.5371046e-38
0.021693729 -0.161915 0.58658332 1.5278859e-38
0.025114285 -0.16017333 0.58600003 1.4904659e-38
0.068997145 -0.16435905 0.58899999 1.2812306e-38
0.070119046 -0.16435905 0.58899999 1.3180365e-38
0.018310063 -0.15792064 0.58931249 1.4996113e-38
0.022391433 -0.15730575 0.58779997 1.5087947e-38
0.025822619 -0.15703095 0.58625001 1.471736e-38
0.019292064 -0.1541492 0.59000003 1.5469011e-38
0.022820294 -0.15275379 0.58884609 1.4912597e-38
0.027137922 -0.15236461 0.58700007 1.4822565e-38
0.064400002 -0.15064 0.588 1.4746962e-38
0.06766168 -0.15177187 0.58938468 1.3918283e-38
0.02773585 -0.14776191 0.58890903 1.4916192e-38
0.031448919 -0.14688078 0.58681816 1.5005121e-38
0.064487629 -0.14748114 0.58880001 1.2995603e-38
0.065837301 -0.14775953 0.58916664 1.2811217e-38
0.028868888 -0.14297153 0.58922225 1.4639247e-38
0.032581322 -0.1424555 0.58761114 1.4538387e-38
0.036316827 -0.14098604 0.5866667 1.4714486e-38
0.063669525 -0.14230911 0.58699995 1.3548781e-38
0.065687142 -0.14260286 0.58949995 1.2995252e-38
0.029730476 -0.1391162 0.58899999 1.4810661e-38
0.032785602 -0.13784476 0.58935297 1.4807763e-38
0.037339352 -0.13740845 0.58759093 1.4714845e-38
0.04113619 -0.13606635 0.58633339 1.4897798e-38
0.063137777 -0.13744953 0.5866667 1.3454782e-38
0.065742858 -0.13991429 0.58999997 1.1063476e-38
0.033995237 -0.13345239 0.58999997 1.4990351e-38
0.037701 -0.13265163 0.58856523 1.4989992e-38
0.042278208 -0.13223083 0.5872941 1.480668e-38
0.045783095 -0.13064976 0.58625001 1.4807039e-38
0.059750162 -0.13122635 0.58633339 1.4624118e-38
0.06220416 -0.13247776 0.58764291 1.4462801e-38
0.038184647 -0.12824298 0.58962494 1.4806321e-38
0.042505011 -0.12733939 0.58847362 1.4714845e-38
0.04667905 -0.12699731 0.58699995 1.4806321e-38
0.058815956 -0.12713024 0.58674997 1.4346806e-38
0.061376795 -0.12729263 0.5892728 1.4916563e-38
0.043209527 -0.12280939 0.58923072 1.4806321e-38
0.047599081 -0.12263878 0.588 1.4805963e-38
0.052577138 -0.12249209 0.58730006 1.4623368e-38
0.057052571 -0.12249228 0.5873 1.4438985e-38
0.060098335 -0.12244262 0.58974999 1.4715587e-38
0.044390477 -0.11968572 0.58999997 1.4805604e-38
0.048237365 -0.11790304 0.58935291 1.4805245e-38
0.052548457 -0.11759876 0.58882344 1.4714486e-38
0.057336774 -0.11747593 0.58894438 1.4438626e-38
0.060123809 -0.11968572 0.58999997 1.452976e-38
0.052751556 -0.11370206 0.58966666 1.4714486e-38
0.056295354 -0.11371274 0.589625 1.4531174e-38
-0.022025716 -0.21065621 0.59300005 9.569634e-39
-0.019766666 -0.2106562 0.59299999 1.030288e-38
-0.020896193 -0.20839715 0.59300005 1.3519251e-38
-0.01880694 -0.20817456 0.59328574 1.3888017e-38
-0.011993144 -0.2069383 0.59399992 1.5815824e-38
-0.0073487833 -0.2057035 0.59355551 1.7377717e-38
-0.0022604764 -0.20619637 0.59316671 1.6459037e-38
0.0033771428 -0.20544286 0.59100002 1.609275e-38
-0.011867302 -0.20229843 0.5933333 1.8126798e-38
-0.0078308927 -0.20224781 0.5925625 1.8309018e-38
-0.0039533335 -0.20387904 0.59299999 1.829894e-38
0.078068569 -0.20082857 0.59399998 1.4997941e-38
-0.011307049 -0.19730096 0.59359998 1.7128204e-38
-0.007644339 -0.19739556 0.59200001 1.7311872e-38
0.077937141 -0.19766667 0.59299999 1.3169523e-38
-0.010748572 -0.19347429 0.59399998 1.6665064e-38
-0.0072437311 -0.19251476 0.59250009 1.6571062e-38
0.077950209 -0.19346122 0.59371424 1.3915749e-38
-0.0062186145 -0.18803282 0.59354544 1.5922415e-38
-0.0029623811 -0.18655905 0.59224999 1.5920257e-38
0.076872379 -0.18765812 0.59349996 1.1322371e-38
-0.0052800006 -0.18310285 0.59399998 1.5733671e-38
-0.002347118 -0.18237428 0.59247375 1.5824798e-38
0.0010131429 -0.18157773 0.59100002 1.6014264e-38
0.076937139 -0.18329144 0.59399992 1.159752e-38
-0.0021608404 -0.1775361 0.59311771 1.5275588e-38
0.0022539997 -0.17753905 0.59179997 1.545708e-38
0.0053471434 -0.17589286 0.59100002 1.5556861e-38
0.074986666 -0.17872761 0.59200001 1.1140127e-38
-0.0011312698 -0.17362523 0.59383333 1.6025808e-38
0.0021584874 -0.17265013 0.59299999 1.519352e-38
0.0067954925 -0.1720129 0.59140003 1.5841047e-38
0.074859999 -0.17054571 0.59100002 1.1057342e-38
0.076274998 -0.17288977 0.59325004 1.2716863e-38
0.0031659049 -0.16858153 0.59359998 1.491549e-38
0.0073323813 -0.16755165 0.59235996 1.5098073e-38
0.011023947 -0.166806 0.59142864 1.6663248e-38
0.074083813 -0.1669981 0.59200001 1.2996683e-38
0.075539052 -0.16767581 0.59280002 1.2720818e-38
0.0081237499 -0.16277078 0.59343749 1.5177996e-38
0.012286858 -0.16222744 0.59186673 1.5361669e-38
0.072447501 -0.16409677 0.59312499 1.2997771e-38
0.0096171433 -0.15896572 0.59399998 1.4532609e-38
0.012424523 -0.15758072 0.59305 1.5091575e-38
0.015837248 -0.15668318 0.5915556 1.5465772e-38
0.069348574 -0.15617524 0.59200001 1.2995994e-38
0.07116095 -0.15587428 0.59299999 1.4195596e-38
0.013004476 -0.15323076 0.59369993 1.5003714e-38
0.01737443 -0.15237404 0.59234995 1.5096638e-38
0.021800956 -0.1511596 0.59128582 1.519459e-38
0.069231428 -0.15028286 0.59100002 1.2260189e-38
0.071031906 -0.15223762 0.59350002 1.3089598e-38
0.017779741 -0.1477951 0.5935455 1.4913305e-38
0.022430265 -0.14743152 0.59211111 1.5095542e-38
0.025703808 -0.14615524 0.59100002 1.5379342e-38
0.068271436 -0.14745067 0.59154546 1.281194e-38
0.071452461 -0.14732975 0.59308332 1.3366556e-38
0.019315103 -0.14280246 0.59399998 1.5186299e-38
0.022711003 -0.14260605 0.59288889 1.5096264e-38
0.026621776 -0.14204833 0.59140003 1.4821485e-38
0.068198167 -0.14292346 0.59250003 1.2443518e-38
0.071785241 -0.14357001 0.59350002 1.2720461e-38
0.023557778 -0.13889906 0.59366667 1.5174381e-38
0.027415289 -0.13742425 0.59235001 1.4990714e-38
0.031332385 -0.13602382 0.59100002 1.4807039e-38
0.06494762 -0.13780192 0.59299999 1.2903773e-38
0.066528574 -0.13927588 0.59366667 1.069396e-38
0.02866159 -0.133215 0.59320003 1.5082545e-38
0.032331131 -0.13207221 0.5916875 1.4990351e-38
0.064595714 -0.13200969 0.59150004 1.3180356e-38
0.066510007 -0.13188905 0.59350002 1.2444587e-38
0.029417142 -0.12898286 0.59399998 1.4990351e-38
0.032614019 -0.12726164 0.59272224 1.4898516e-38
0.036717463 -0.12641628 0.59111118 1.4714845e-38
0.064026572 -0.1271127 0.59144443 1.4376381e-38
0.065774292 -0.12759016 0.59366667 1.3363312e-38
0.033758331 -0.12345167 0.59324998 1.4898874e-38
0.037486624 -0.12256412 0.59231818 1.4898874e-38
0.040849645 -0.12142321 0.59162503 1.4898516e-38
0.062418535 -0.12262235 0.59207696 1.4924489e-38
0.065057144 -0.12389143 0.59399998 1.3548419e-38
0.038734999 -0.11846691 0.59375 1.4898516e-38
0.04238078 -0.11765377 0.59263647 1.4806321e-38
0.046267759 -0.11659592 0.59142864 1.4805245e-38
0.061464846 -0.11728816 0.59208333 1.4823639e-38
0.043149944 -0.11268074 0.59355551 1.4714845e-38
0.04738719 -0.11226299 0.59235001 1.4714486e-38
0.051739365 -0.11154996 0.59122229 1.4623368e-38
0.058004089 -0.11206504 0.59130007 1.4255674e-38
0.061396431 -0.112905 0.59324998 1.4729641e-38
0.043842856 -0.1089 0.59399998 1.480668e-38
0.047594652 -0.10775114 0.59330767 1.4714486e-38
0.052476119 -0.10777315 0.59248006 1.462265e-38
0.057582147 -0.10782214 0.59275013 1.4347505e-38
0.06053143 -0.10918286 0.59399998 1.4439715e-38
0.053082865 -0.10371429 0.59399992 1.462265e-38
0.056005713 -0.10409143 0.59399998 1.4622292e-38
-0.017000001 -0.21079999 0.59500003 1.0395067e-38
-0.012661587 -0.21035111 0.59533334 9.2872821e-39
-0.0069040819 -0.21126491 0.59700006 9.6621799e-39
-0.003132381 -0.2115781 0.59799999 9.5725024e-39
-0.021048889 -0.20650604 0.59733331 1.7932316e-38
-0.017393611 -0.20680459 0.59588242 1.7012541e-38
-0.013038504 -0.20806681 0.59528577 1.4440114e-38
-0.0073806932 -0.20876129 0.59609097 1.3155155e-38
-0.0025163267 -0.20911524 0.59642863 1.1685096e-38
0.078331612 -0.20648856 0.59860003 1.0752286e-38
0.081652142 -0.2067669 0.59850001 1.2240388e-38
-0.022232015 -0.20236284 0.59853852 1.7678117e-38
-0.01745736 -0.20250022 0.59650004 1.7949275e-38
-0.013977779 -0.20192222 0.59500003 1.8040751e-38
0.078292653 -0.20333865 0.59757149 1.6195762e-38
0.081784703 -0.20219602 0.59635723 1.5275609e-38
-0.021602962 -0.1975909 0.59866667 1.7128211e-38
-0.017720677 -0.19737439 0.5969584 1.7127494e-38
-0.013608929 -0.19732392 0.595375 1.6944536e-38
0.079899997 -0.1972 0.59500003 1.3356443e-38
0.082286157 -0.19705759 0.59523094 1.3262804e-38
0.085000955 -0.19624381 0.59899998 1.2794986e-38
-0.02110762 -0.1939619 0.59899998 1.6665061e-38
-0.017424904 -0.1926776 0.59785002 1.6570343e-38
-0.012678889 -0.19225033 0.59605563 1.656998e-38
-0.0096333334 -0.19096667 0.59500003 1.6201191e-38
0.078993335 -0.19255333 0.59500003 1.3637365e-38
0.081894957 -0.19222 0.59641188 1.2064992e-38
-0.016537143 -0.18903357 0.59875 1.5919912e-38
-0.012618546 -0.18745886 0.59789473 1.5919532e-38
-0.0086941272 -0.18719874 0.59533346 1.5920247e-38
0.078872576 -0.1878181 0.59580004 1.1506404e-38
0.081634417 -0.18759303 0.59773338 1.141565e-38
-0.012042857 -0.18257292 0.59799999 1.5731157e-38
-0.0080455467 -0.18255165 0.59582359 1.5640034e-38
0.078413926 -0.1818275 0.59662503 1.1506402e-38
0.081365936 -0.18248931 0.59807694 1.1507127e-38
-0.01168857 -0.17760348 0.59866667 1.5373554e-38
-0.0073876558 -0.17757903 0.59648001 1.5372478e-38
-0.0039666668 -0.1751 0.59500003 1.5845751e-38
0.07759016 -0.17800716 0.59683341 1.150893e-38
0.081259288 -0.17933977 0.59875 1.1690084e-38
-0.010839048 -0.17399524 0.59899998 1.5744131e-38
-0.0068913335 -0.17270648 0.59789997 1.5192061e-38
-0.0027567346 -0.1721483 0.59571439 1.5099879e-38
0.07802476 -0.17028762 0.59799999 1.2630413e-38
-0.0060432376 -0.16783544 0.59860003 1.5002645e-38
-0.0021845109 -0.16748966 0.59657896 1.5375747e-38
0.001511984 -0.16681038 0.59541672 1.5469388e-38
0.077602565 -0.16679303 0.5965001 1.2904853e-38
0.080168575 -0.16545428 0.597 1.2537508e-38
-0.0018618412 -0.16284126 0.59826666 1.5270169e-38
0.0022412532 -0.16234551 0.59657902 1.5177977e-38
0.0059814816 -0.16162592 0.59500009 1.5176177e-38
0.073496483 -0.16189629 0.59730005 8.8507608e-39
0.077018626 -0.1625694 0.59755552 1.0047866e-38
0.080168575 -0.16431715 0.597 9.0330011e-39
0.0026308927 -0.15757138 0.59756255 1.5189539e-38
0.0071192645 -0.15732054 0.59595454 1.5006589e-38
0.073266305 -0.15804638 0.59776926 1.1708118e-38
0.07587333 -0.15745142 0.59899998 1.4655853e-38
0.0032765474 -0.15315466 0.59837496 1.5006966e-38
0.007491346 -0.15255463 0.59721738 1.5006959e-38
0.011909428 -0.15142657 0.59549999 1.4820759e-38
0.073487408 -0.15309864 0.59711117 1.3366189e-38
0.07587333 -0.15459904 0.59899998 1.4195593e-38
0.0084740315 -0.14786516 0.59853333 1.5098433e-38
0.012371217 -0.14740179 0.59655559 1.4914399e-38
0.01568635 -0.1460927 0.59533334 1.4914759e-38
0.073601276 -0.14777017 0.59600008 1.3826456e-38
0.0093177771 -0.14299938 0.59899998 1.5270904e-38
0.012644974 -0.14259024 0.59755558 1.5179432e-38
0.016720785 -0.14221546 0.5957647 1.5181956e-38
0.069758572 -0.14065096 0.59549999 1.0422412e-38
0.071620479 -0.14153287 0.59683341 1.2165855e-38
0.013489682 -0.13888937 0.59850001 1.5082904e-38
0.017670691 -0.13756108 0.59686363 1.5082187e-38
0.022275036 -0.13713396 0.59535724 1.5173663e-38
0.068001628 -0.13754068 0.59571439 1.3550581e-38
0.070782095 -0.13780229 0.59840006 1.3917929e-38
0.018725967 -0.13298491 0.59826672 1.4990351e-38
0.022730384 -0.13240953 0.59670007 1.5082187e-38
0.026391007 -0.13220836 0.59522229 1.5082545e-38
0.068456605 -0.1329309 0.59685725 1.2536067e-38
0.07009048 -0.13391207 0.59833336 1.2720819e-38
0.019966668 -0.12892762 0.59899998 1.4989992e-38
0.022774881 -0.1275463 0.597875 1.5081828e-38
0.027058043 -0.12753677 0.59605563 1.4990351e-38
0.030033333 -0.12636667 0.59500003 1.4898157e-38
0.067536674 -0.12768009 0.59689999 1.2995613e-38
0.023633966 -0.12362043 0.59877777 1.4898157e-38
0.027210273 -0.12240415 0.59721047 1.5081469e-38
0.031674556 -0.12208273 0.59542871 1.4990351e-38
0.064033337 -0.12126666 0.59500003 1.4286339e-38
0.066544332 -0.12258987 0.59718186 1.336331e-38
0.027921587 -0.11805128 0.59833336 1.480668e-38
0.032400765 -0.11766972 0.59687996 1.4898516e-38
0.03706881 -0.1170188 0.59537512 1.4898874e-38
0.040233333 -0.11503334 0.59500003 1.4715562e-38
0.064033337 -0.1173 0.59500003 1.39172e-38
0.065670475 -0.11883047 0.597 1.3455865e-38
0.032822996 -0.11271663 0.59834999 1.1313704e-38
0.037501186 -0.11250582 0.59662503 1.4164192e-38
0.040611111 -0.11182222 0.59500003 1.4623368e-38
0.063112855 -0.11201 0.597 1.4280563e-38
0.03777026 -0.10780858 0.59788889 1.1407342e-38
0.042293333 -0.10688365 0.59590489 1.443934e-38
0.047033336 -0.10596667 0.59500003 1.4715203e-38
0.062023524 -0.10754206 0.59746164 1.4732522e-38
0.038960636 -0.10395873 0.59866667 8.2806328e-39
0.042798948 -0.10252157 0.59752631 1.1683924e-38
0.04765534 -0.10268582 0.59570003 1.4623368e-38
0.052277144 -0.10137223 0.59515399 1.4714486e-38
0.058043495 -0.10247268 0.5955556 1.4347508e-38
0.061521545 -0.10253535 0.59812498 1.5004784e-38
0.043731704 -0.099110208 0.59857148 9.9354625e-39
0.047583591 -0.097342387 0.59804547 1.3336236e-38
0.052644555 -0.097557127 0.59573692 1.462265e-38
0.057742864 -0.09768302 0.59611768 1.4347145e-38
0.061040953 -0.096980952 0.59899998 1.5178359e-38
0.048589841 -0.09293545 0.59866667 1.2690876e-38
0.052338134 -0.092729747 0.59735 1.4162755e-38
0.057292018 -0.092726298 0.59765214 1.4438985e-38
0.049631428 -0.089564763 0.59899998 1.333516e-38
0.053054284 -0.088912793 0.59899998 1.4437903e-38
0.056096822 -0.088804126 0.59899998 1.4530097e-38
-0.027595304 -0.21254881 0.60364294 1.3243389e-38
-0.024673808 -0.21231382 0.60249996 1.2508342e-38
-0.031710774 -0.20729028 0.60369241 1.7411974e-38
-0.027492974 -0.2073319 0.60137498 1.8217186e-38
-0.023434872 -0.20748191 0.6001538 1.7841566e-38
0.084093332 -0.20651619 0.6006667 1.5924608e-38
0.086286984 -0.20567176 0.60266668 1.5090862e-38
-0.035089523 -0.2024838 0.60399997 1.6604613e-38
-0.03204779 -0.20223847 0.60276473 1.6417326e-38
-0.02744375 -0.20239125 0.60031247 1.7135773e-38
-0.024571428 -0.20228571 0.60000002 1.7496259e-38
0.086000279 -0.20290668 0.60257137 1.4631329e-38
-0.035089523 -0.19788191 0.60399997 1.6237627e-38
-0.032294918 -0.19727081 0.60311115 1.5955629e-38
-0.027468428 -0.19742091 0.60084999 1.6580802e-38
-0.024068044 -0.19743291 0.60011107 1.6944176e-38
0.086348705 -0.19749375 0.60157144 1.3438552e-38
-0.031701975 -0.19275437 0.60364288 1.5671106e-38
-0.027653649 -0.19235545 0.60211116 1.5930016e-38
-0.022976806 -0.19238587 0.60047054 1.6294107e-38
-0.02 -0.19085714 0.60000002 1.619939e-38
0.086031951 -0.19329672 0.60266668 1.2427648e-38
-0.027356356 -0.18783803 0.60358828 1.5642592e-38
-0.022733154 -0.1874439 0.60171431 1.5917728e-38
-0.017882042 -0.18730967 0.60014284 1.5826249e-38
0.084210008 -0.18789715 0.60150003 1.1508203e-38
0.085855044 -0.18699791 0.60339993 1.1508208e-38
-0.022081256 -0.18268447 0.60286367 1.5638963e-38
-0.017169049 -0.18255846 0.60089999 1.5548571e-38
-0.014285715 -0.18228571 0.60000002 1.5730796e-38
0.084083997 -0.18246762 0.60060006 1.1598603e-38
0.0872894 -0.18238416 0.60150003 1.2245055e-38
-0.020976268 -0.17767197 0.60341674 1.6290854e-38
-0.017288966 -0.17742512 0.60152942 1.5658116e-38
-0.013857142 -0.1772857 0.59999996 1.5378989e-38
0.079091743 -0.17590699 0.60033333 1.3914691e-38
0.082724638 -0.17733406 0.60162503 1.2440637e-38
0.085856192 -0.17821333 0.60233331 1.30878e-38
-0.020133333 -0.17429714 0.60399997 1.5377901e-38
-0.017018465 -0.17265159 0.60227776 1.53797e-38
-0.012799523 -0.17246403 0.60062498 1.5189181e-38
-0.0094285719 -0.17171428 0.60000002 1.5376084e-38
0.079071164 -0.17310354 0.60100001 1.2536428e-38
0.081928216 -0.17404322 0.60262501 1.290414e-38
-0.016247261 -0.16836584 0.60387498 1.5550395e-38
-0.012649206 -0.16764006 0.60233331 1.5548228e-38
-0.0083500324 -0.16702446 0.60046667 1.5550737e-38
0.079494759 -0.16928428 0.60049999 1.3180721e-38
0.08110857 -0.16912001 0.60399997 1.2998135e-38
-0.011754372 -0.16293342 0.60336369 1.5276315e-38
-0.0075567807 -0.16252151 0.601381 1.5457452e-38
-0.0035428572 -0.16148572 0.60000002 1.5274135e-38
0.079693332 -0.16110666 0.602 1.5209035e-38
0.080974288 -0.16022572 0.60299999 1.4196307e-38
-0.010929524 -0.1587657 0.60399997 1.5280665e-38
-0.0072653005 -0.15788136 0.60282606 1.5374294e-38
-0.0022901429 -0.15739042 0.60095 1.5561213e-38
0.00057142857 -0.15657143 0.60000002 1.4545607e-38
0.078270636 -0.15771635 0.60194123 1.4194872e-38
0.080974296 -0.15792857 0.60300004 1.4010479e-38
-0.0060949526 -0.15316713 0.60370004 1.5280304e-38
-0.0024240741 -0.15231286 0.60250002 1.5190985e-38
0.0016195237 -0.15198874 0.60033333 1.5377185e-38
0.0051428573 -0.15028572 0.60000002 1.5471194e-38
0.074857146 -0.15142857 0.60000002 1.4103395e-38
0.076556072 -0.15253656 0.60212499 1.3827168e-38
-0.0016366303 -0.14793701 0.60369235 1.5556509e-38
0.0022916193 -0.14732076 0.60189998 1.5277057e-38
0.0058582141 -0.14703035 0.60012496 1.5098082e-38
0.0029894288 -0.14293249 0.6037001 1.545025e-38
0.0066770897 -0.14234419 0.60105544 1.5268024e-38
0.073898569 -0.14206761 0.60150003 1.2536799e-38
0.075231425 -0.14242285 0.60299999 1.2905223e-38
0.0040266667 -0.13920763 0.60399997 1.5358052e-38
0.0074106338 -0.13751137 0.60266674 1.5266216e-38
0.012168572 -0.13712613 0.60028571 1.5082545e-38
0.015428571 -0.13542858 0.60000002 1.4899951e-38
0.072801165 -0.13789302 0.6018889 1.3733542e-38
0.075356193 -0.13978286 0.60399997 1.3734978e-38
0.0084709842 -0.13289739 0.60373342 1.5174381e-38
0.012512582 -0.13246626 0.60157895 1.5082545e-38
0.016146073 -0.13217011 0.60012496 1.5082904e-38
0.071927115 -0.13232639 0.60269231 1.3088167e-38
0.0092038093 -0.12885332 0.60399997 1.526514e-38
0.012738992 -0.12770885 0.60323536 1.5173305e-38
0.017161621 -0.1275761 0.60070002 1.5081828e-38
0.020285714 -0.126 0.60000002 1.5082545e-38
0.069258094 -0.12649493 0.60100001 1.2904856e-38
0.071736112 -0.12774356 0.60345459 1.308961e-38
0.013606033 -0.12399112 0.60366672 1.499071e-38
0.017298143 -0.12230336 0.60231578 1.4260331e-38
0.021649864 -0.12197857 0.60049999 1.4075942e-38
0.069030337 -0.12192532 0.60185719 1.2995968e-38
0.071137778 -0.12348445 0.60400003 1.2904852e-38
0.0184 -0.11729929 0.60374999 1.2432611e-38
0.022350211 -0.11749262 0.60179996 1.205988e-38
0.026292857 -0.11641286 0.60016668 1.3430584e-38
0.067847364 -0.11702019 0.60133332 1.2535349e-38
0.023638438 -0.11266546 0.60272729 1.0127037e-38
0.027549023 -0.1125783 0.60068423 9.7525034e-39
0.031200001 -0.11074286 0.60000002 8.0923039e-39
0.064571425 -0.112 0.60000002 1.271758e-38
0.06698484 -0.11257867 0.60192305 1.2534988e-38
0.024437383 -0.10896215 0.60374999 9.1100193e-39
0.027555048 -0.10735448 0.60280001 7.7260269e-39
0.032608483 -0.10755288 0.60070002 7.6327606e-39
0.035999998 -0.10628571 0.60000002 8.3696026e-39
0.064407431 -0.10719258 0.6006 1.2993078e-38
0.067568623 -0.10718938 0.60294443 1.2350236e-38
0.028953653 -0.10373461 0.60399997 7.2650571e-39
0.03288886 -0.10326096 0.60270005 7.3558248e-39
0.037387516 -0.1019906 0.60088891 7.5420083e-39
0.040571429 -0.10114285 0.60000002 8.6494181e-39
0.063824557 -0.10263874 0.60133338 1.4189803e-38
0.066152379 -0.10411809 0.60399997 1.2351305e-38
0.033939049 -0.099516191 0.60399997 7.6316928e-39
0.037418541 -0.097641595 0.60252637 8.0040529e-39
0.041965786 -0.097234368 0.60033339 9.1100263e-39
0.045142855 -0.095428571 0.60000002 1.0398229e-38
0.062117264 -0.097896785 0.601125 1.5194216e-38
0.038860004 -0.093240961 0.60360003 9.7532265e-39
0.042432856 -0.092319332 0.60210001 1.0487909e-38
0.046323806 -0.091980159 0.60049993 1.1404462e-38
0.061974578 -0.092493862 0.60207695 1.5100233e-38
0.03969143 -0.089161903 0.60399997 1.3150054e-38
0.042793609 -0.087558523 0.60371435 1.370286e-38
0.047561202 -0.087475158 0.6016956 1.3795055e-38
0.052296922 -0.086604334 0.60038453 1.4530456e-38
0.057571907 -0.086806051 0.60021424 1.4531898e-38
0.06155131 -0.087628931 0.60187501 1.5004077e-38
0.044005714 -0.08369714 0.60399997 1.4714127e-38
0.047802154 -0.082815893 0.60321057 1.4714127e-38
0.052745949 -0.082558811 0.602 1.4713768e-38
0.057304464 -0.082515538 0.60168761 1.4439349e-38
0.060835648 -0.0830011 0.60342854 1.4810336e-38
0.048511751 -0.079574607 0.60399997 1.4897081e-38
0.052662719 -0.077966936 0.60385722 1.4713768e-38
0.057174899 -0.077798083 0.60352951 1.4439348e-38
0.060400002 -0.079958096 0.60399997 1.4075659e-38
0.05407238 -0.074205711 0.60399997 1.4438979e-38
0.056948572 -0.072480008 0.60400009 1.4530102e-38
-0.04113492 -0.21146762 0.60833335 1.4533015e-38
-0.037525788 -0.21193121 0.60761529 1.3978038e-38
-0.032402944 -0.21242236 0.60654545 1.3702186e-38
0.089320004 -0.21054 0.60900003 1.4730399e-38
0.091059998 -0.21054 0.60900003 1.2609196e-38
-0.042413972 -0.20723686 0.60866666 1.7248883e-38
-0.037624855 -0.20760977 0.6069091 1.742281e-38
-0.033762861 -0.20863715 0.60600001 1.7040665e-38
0.088754706 -0.2079545 0.60822219 1.5371779e-38
0.09083572 -0.2071276 0.60749996 1.3707957e-38
-0.042665154 -0.20268239 0.60876477 1.6238713e-38
-0.038057595 -0.20252246 0.60705876 1.6421663e-38
0.088720597 -0.20301369 0.606875 1.4448382e-38
0.090960324 -0.2033565 0.60833335 1.3431372e-38
-0.040600002 -0.19778 0.60900003 1.5684093e-38
-0.037814561 -0.19757402 0.6075294 1.6053235e-38
-0.036451228 -0.19274594 0.60749996 1.568337e-38
-0.033502065 -0.19119129 0.60650003 1.4479767e-38
0.088353008 -0.19202302 0.60699999 1.2243971e-38
0.091059998 -0.19139999 0.60900003 1.3439294e-38
-0.03572762 -0.18810001 0.60833335 1.5403898e-38
-0.032248836 -0.18763992 0.60705554 1.4558971e-38
-0.028049141 -0.18549372 0.60600001 1.5364178e-38
0.088450484 -0.18907182 0.60860002 1.1784793e-38
-0.03212364 -0.18262112 0.60805881 1.437024e-38
-0.027857883 -0.18222243 0.60655552 1.5270539e-38
-0.024817144 -0.18179999 0.60600007 1.5453849e-38
-0.031668004 -0.17875601 0.60900003 1.4274077e-38
-0.027666669 -0.17750902 0.60799998 1.5269451e-38
-0.023865053 -0.1770948 0.60661536 1.5547484e-38
0.085557148 -0.17574 0.60699999 1.3642422e-38
-0.027249046 -0.17363833 0.60875005 1.5268011e-38
-0.022383574 -0.17257386 0.60724998 1.6200825e-38
-0.019045714 -0.17083427 0.60600001 1.5653423e-38
0.082863927 -0.17237869 0.60737497 1.3550949e-38
0.085189998 -0.17385668 0.6085 1.4196317e-38
-0.021658035 -0.16782624 0.60843754 1.5453482e-38
-0.018008415 -0.16697715 0.60666668 1.5361289e-38
0.082667619 -0.1693819 0.60699999 1.3458391e-38
-0.020300001 -0.16298001 0.60900009 1.5738761e-38
-0.017278399 -0.16256061 0.60789478 1.5832751e-38
-0.013857381 -0.16195478 0.60624999 1.5466856e-38
-0.017145917 -0.15787001 0.60878581 1.5556874e-38
-0.012816302 -0.15741788 0.60676467 1.5099875e-38
-0.0094266664 -0.15563619 0.60600007 1.5374317e-38
0.079068571 -0.15525143 0.60600001 1.3733536e-38
0.08022286 -0.15525143 0.60600001 1.3641341e-38
-0.016046667 -0.15447333 0.60900009 1.5929995e-38
-0.01277692 -0.15272705 0.60811764 1.555112e-38
-0.0083044693 -0.15200455 0.60615385 1.5276335e-38
0.078040957 -0.15152286 0.60700005 1.3642421e-38
0.080611184 -0.15313166 0.60675001 1.3458746e-38
-0.011786984 -0.14917111 0.60866672 1.5358052e-38
-0.0073193372 -0.14763711 0.60730439 1.5266938e-38
-0.0036563491 -0.14663413 0.60616666 1.5363828e-38
0.076499186 -0.14729212 0.60785711 1.2536071e-38
-0.0063782856 -0.14321278 0.60880005 1.5266934e-38
-0.0022220053 -0.14264166 0.60689467 1.5266575e-38
0.0013466665 -0.14178476 0.60600001 1.5174381e-38
0.077140003 -0.14151999 0.60900003 1.3919007e-38
-0.0018275458 -0.13789189 0.60815382 1.5265858e-38
0.0021937145 -0.1373197 0.60633332 1.5266216e-38
0.07449238 -0.13685745 0.60633337 1.3642065e-38
0.075917616 -0.13792571 0.6085 1.4010488e-38
-0.00086976192 -0.13392453 0.60875005 1.5358411e-38
0.002312524 -0.13248034 0.60745001 1.5265858e-38
0.0058538779 -0.13216573 0.60600007 1.5173663e-38
0.074549712 -0.13234133 0.60680002 1.3641343e-38
0.076387733 -0.13179654 0.60762501 1.3826093e-38
0.0027696297 -0.12839079 0.60877782 1.5357693e-38
0.0071802721 -0.12736748 0.60671431 1.5174022e-38
0.010965714 -0.12524 0.60600001 1.4990351e-38
0.074087143 -0.12662208 0.60616672 1.3180727e-38
0.076744668 -0.12755933 0.60770005 1.3364042e-38
0.0080479896 -0.12285815 0.60850006 1.5082545e-38
0.012298504 -0.12200163 0.60671425 1.4991069e-38
0.015582857 -0.12062286 0.60600001 1.5087209e-38
0.073231667 -0.12211595 0.60624999 1.3088887e-38
0.076316193 -0.12294859 0.6077143 1.3364398e-38
0.0092799999 -0.1189 0.60900003 1.3798283e-38
0.013053725 -0.11769327 0.60841185 1.3344502e-38
0.016107302 -0.11750138 0.60644442 1.2705961e-38
0.072486475 -0.11764748 0.6069333 1.2905213e-38
0.013572 -0.11379601 0.60900003 1.197201e-38
0.017548518 -0.11281965 0.60749996 1.1789058e-38
0.021068495 -0.11226945 0.60608333 1.0864588e-38
0.069926478 -0.11269066 0.60680002 1.2720459e-38
0.071712375 -0.1126148 0.60777783 1.2812658e-38
0.018472653 -0.10843429 0.60885715 1.1326292e-38
0.022296455 -0.10744599 0.60727781 1.0127034e-38
0.069834284 -0.10908 0.60600001 1.2627189e-38
0.070988573 -0.10850286 0.60600001 1.281266e-38
0.022797639 -0.10270745 0.6083914 8.3739102e-39
0.027499216 -0.10194201 0.60676473 7.6338396e-39
0.031454284 -0.10128858 0.60600001 7.1725112e-39
0.06774129 -0.10240806 0.6067059 1.3088158e-38
0.070064761 -0.10191238 0.60799998 1.2904848e-38
0.023448573 -0.098682858 0.60900003 8.2774028e-39
0.027930733 -0.097469918 0.60846668 7.7245989e-39
0.032267164 -0.097532548 0.60673684 7.7249563e-39
0.035590477 -0.095613331 0.60600007 8.0976736e-39
0.064089283 -0.097000234 0.60624999 1.5389061e-38
0.066987671 -0.097520478 0.60750002 1.3640615e-38
0.070179999 -0.096860006 0.60900009 1.2812659e-38
0.028883999 -0.093844004 0.60900003 1.0297777e-38
0.032445595 -0.092704408 0.60837501 1.0669778e-38
0.036639784 -0.092066742 0.60623074 1.0853811e-38
0.064062856 -0.093497142 0.60600001 1.5389067e-38
0.067004383 -0.092692137 0.60753334 1.3549139e-38
0.070179999 -0.093960002 0.60900003 1.3364394e-38
0.033054382 -0.088725239 0.60890007 1.4069485e-38
0.037341863 -0.087468266 0.60750008 1.4070561e-38
0.040977143 -0.086571425 0.60600001 1.4346426e-38
0.064062856 -0.086571425 0.60600001 1.5112841e-38
0.066265397 -0.087677471 0.60766661 1.3272198e-38
0.038086783 -0.082981318 0.60825002 1.4897439e-38
0.042123545 -0.082129575 0.60683328 1.480668e-38
0.045979049 -0.080607623 0.60600007 1.4714127e-38
0.06329342 -0.082366437 0.60691667 1.4739035e-38
0.065685526 -0.082598664 0.60820001 1.1981818e-38
0.042797796 -0.077848986 0.60831249 1.4805963e-38
0.047245901 -0.077280454 0.60646665 1.4805604e-38
0.050788574 -0.076182857 0.60600001 1.471341e-38
0.059445716 -0.076759994 0.60600007 1.4624825e-38
0.061717238 -0.077811711 0.6078999 1.4448753e-38
0.043886669 -0.074046664 0.60900003 1.4897081e-38
0.047611091 -0.072830588 0.60835296 1.4805245e-38
0.052262221 -0.072243176 0.60685712 1.4714486e-38
0.059445713 -0.072720006 0.60600001 1.4807419e-38
0.061736666 -0.072363332 0.60866672 1.5002653e-38
0.053006668 -0.067985572 0.60853857 1.462265e-38
0.057418369 -0.067645036 0.60795838 1.4530823e-38
0.061131995 -0.067627996 0.60900003 1.4448752e-38
0.053939998 -0.064379998 0.60900003 1.4622292e-38
0.05703333 -0.064380005 0.60900009 1.4530463e-38
-0.052401759 -0.2170154 0.61292309 1.46234e-38
-0.047379885 -0.21726654 0.61324996 1.2973637e-38
-0.043836195 -0.21651186 0.61371434 1.306584e-38
-0.055461906 -0.21075524 0.61299998 1.4659067e-38
-0.052500956 -0.21233393 0.61249989 1.5190625e-38
-0.04791633 -0.21221212 0.61142862 1.5553288e-38
-0.043690473 -0.21262826 0.61166668 1.4535173e-38
0.087548189 -0.21172152 0.61040002 1.2435952e-38
0.09004762 -0.21204762 0.61000001 1.1335749e-38
-0.055461906 -0.20900381 0.61299998 1.3191905e-38
-0.052518494 -0.20742404 0.61229414 1.6697878e-38
-0.047535662 -0.20725448 0.61033332 1.706594e-38
-0.044442855 -0.20885238 0.61000001 1.7796279e-38
-0.051517617 -0.20303018 0.61330003 1.5868487e-38
-0.047903329 -0.20241655 0.61172217 1.586885e-38
-0.044394922 -0.20103493 0.61066669 1.5685535e-38
-0.050874285 -0.19881904 0.61400002 1.5037999e-38
-0.047735136 -0.19761534 0.61288887 1.5313512e-38
-0.04322549 -0.1972273 0.61088234 1.5590819e-38
-0.04702324 -0.19257219 0.61360002 1.5035843e-38
-0.042272992 -0.19276112 0.61181813 1.5312433e-38
-0.03870419 -0.19166039 0.61020005 1.5037642e-38
0.090956427 -0.19324452 0.61025 1.3162346e-38
-0.045319043 -0.18800095 0.61400002 1.4851803e-38
-0.04203891 -0.18741758 0.61304992 1.4943998e-38
-0.037711207 -0.18720996 0.61061543 1.5035833e-38
0.088885717 -0.18764763 0.61000001 1.2060303e-38
0.090923809 -0.18824914 0.61120003 1.3351055e-38
-0.041381735 -0.18246987 0.61354542 1.4850727e-38
-0.037393037 -0.1825407 0.6119473 1.4850717e-38
-0.034276195 -0.1818381 0.61000001 1.4286346e-38
0.089128576 -0.1823362 0.61166668 1.3170612e-38
-0.040348571 -0.1795219 0.61400002 1.4667412e-38
-0.036990669 -0.17771117 0.61259997 1.4665246e-38
-0.032991499 -0.176919 0.61078578 1.4370606e-38
0.087607861 -0.17638168 0.61325002 1.4472899e-38
-0.035880763 -0.17332648 0.61360002 1.4112426e-38
-0.032647513 -0.17255524 0.61211109 1.4368067e-38
-0.02829667 -0.17171445 0.6105001 1.5267293e-38
-0.024980953 -0.1708 0.61000001 1.526802e-38
0.084238097 -0.1708 0.61000001 1.327401e-38
0.086942859 -0.17290986 0.61266667 1.364351e-38
-0.032505717 -0.16758306 0.61311108 1.4184761e-38
-0.027737593 -0.16742744 0.61142111 1.5268013e-38
-0.024019204 -0.16716588 0.61016673 1.5360206e-38
0.083794288 -0.16875239 0.611 8.7567702e-39
0.085539997 -0.16933429 0.611 9.8623918e-39
-0.031631298 -0.1629962 0.61342853 1.4638883e-38
-0.027319245 -0.16264051 0.61245823 1.5359845e-38
-0.022535834 -0.16217823 0.61062497 1.5452766e-38
-0.026387066 -0.15802674 0.61341667 1.5268369e-38
-0.0220428 -0.1575108 0.61188227 1.5360214e-38
-0.01889619 -0.15611285 0.61049998 1.7119171e-38
-0.021617657 -0.15311728 0.61346149 1.5359131e-38
-0.017717088 -0.1521731 0.61164713 1.5637534e-38
-0.01452381 -0.15046667 0.61000001 1.5174389e-38
0.079009525 -0.15046667 0.61000001 1.3826096e-38
0.082605146 -0.15188952 0.61339992 1.3365471e-38
-0.017276864 -0.1475796 0.61305887 1.5358411e-38
-0.013216939 -0.14695449 0.61092865 1.5449887e-38
-0.0098761907 -0.1464 0.61000001 1.5358769e-38
0.079009525 -0.14756191 0.61000007 1.2442795e-38
0.082146183 -0.1472562 0.61316669 1.2810861e-38
-0.016695345 -0.14311059 0.61388892 1.5358411e-38
-0.012705239 -0.14265572 0.61249995 1.5358411e-38
-0.0083340323 -0.14166635 0.61046672 1.5266575e-38
0.078737073 -0.14265561 0.61100006 1.3827172e-38
0.082236096 -0.14254467 0.61318183 1.3734254e-38
-0.012177858 -0.13804452 0.61374998 1.5266575e-38
-0.0075783343 -0.13754214 0.61195004 1.5266216e-38
-0.0036815871 -0.13679175 0.61033338 1.5265499e-38
0.078558572 -0.13732952 0.61100006 1.3917925e-38
0.082522117 -0.13874772 0.61355555 1.3642776e-38
-0.011110476 -0.13391048 0.61400002 1.5541005e-38
-0.007439544 -0.13274597 0.61308694 1.5357693e-38
-0.0026404397 -0.13227737 0.61061543 1.5357693e-38
0.078521773 -0.13319361 0.61071432 1.3918286e-38
0.080112383 -0.13332573 0.61400002 1.4011199e-38
-0.0059927381 -0.12789035 0.61387497 1.5357693e-38
-0.0023333335 -0.12768543 0.61219996 1.5357693e-38
0.00161418 -0.12637039 0.61022228 1.5357693e-38
0.079049528 -0.12748078 0.61120003 1.3548789e-38
-0.0017542857 -0.12317213 0.61399996 1.4807756e-38
0.0024579896 -0.12267767 0.61177778 1.4164908e-38
0.0062269391 -0.12114368 0.61028576 1.3706448e-38
0.077845238 -0.12191095 0.61150002 1.4009403e-38
-0.0005847619 -0.11929142 0.61400002 1.2243578e-38
0.0024658204 -0.11768995 0.61344445 1.0955703e-38
0.0073634395 -0.11725432 0.6105001 1.1045026e-38
0.011038096 -0.11619048 0.61000001 1.1874065e-38
0.075987451 -0.11745204 0.61245453 1.3918285e-38
0.0038009521 -0.11315143 0.61400002 1.0588358e-38
0.0075780568 -0.11253341 0.61223996 1.0309629e-38
0.012304525 -0.11200564 0.61041677 1.1971653e-38
0.015685715 -0.11096191 0.61000001 1.1421363e-38
0.073901907 -0.11288952 0.611 1.308889e-38
0.075342141 -0.11213785 0.61324996 1.3089612e-38
0.0081079761 -0.10774918 0.61362499 1.1235165e-38
0.012897843 -0.10757414 0.61126316 1.1512112e-38
0.016849598 -0.10686381 0.61007702 1.1418849e-38
0.072910912 -0.10790573 0.61245453 1.2443155e-38
0.0090638101 -0.10438 0.61400002 1.1326295e-38
0.012965269 -0.10291132 0.61326665 1.1325576e-38
0.017453989 -0.10240424 0.61093748 1.1512122e-38
0.020333333 -0.10108571 0.61000001 8.7448339e-39
0.071751274 -0.10266905 0.61249995 1.290485e-38
0.013839364 -0.099214606 0.61400008 1.1599998e-38
0.017504098 -0.097446859 0.61269999 1.1139737e-38
0.022090612 -0.096837275 0.61042863 9.6588729e-39
0.026142858 -0.095857143 0.61000001 8.1830519e-39
0.071295045 -0.098045148 0.61059999 1.2904494e-38
0.018222684 -0.092496611 0.61363631 1.2322817e-38
0.02248998 -0.092655681 0.61152375 1.2506129e-38
0.027122596 -0.091767251 0.61027783 1.3150055e-38
0.069189996 -0.090702385 0.61049998 1.3087451e-38
0.070806094 -0.09243086 0.61040002 1.3273281e-38
0.019004762 -0.088591427 0.61400002 1.4346785e-38
0.022188332 -0.087588452 0.61312497 1.4622292e-38
0.02735929 -0.087320141 0.61124992 1.4805963e-38
0.031957429 -0.086575903 0.61010009 1.4714127e-38
0.068721116 -0.087356672 0.61150002 1.3179645e-38
0.070525713 -0.089177147 0.61199999 1.3088167e-38
0.023585398 -0.084400639 0.61400002 1.4989992e-38
0.027733557 -0.082756698 0.61338103 1.4898157e-38
0.032601729 -0.082671843 0.61131251 1.4806321e-38
0.03572857 -0.081623808 0.61000001 1.4897439e-38
0.067556992 -0.082698256 0.61150002 1.0784354e-38
0.029822858 -0.078942858 0.61400002 1.4990351e-38
0.032781355 -0.077761993 0.61294734 1.4989275e-38
0.037231665 -0.077373184 0.61085004 1.4897439e-38
0.04037619 -0.076976188 0.61000001 1.480668e-38
0.064199053 -0.077154152 0.61042863 1.2900518e-38
0.06632138 -0.077707835 0.61144447 1.0232971e-38
0.033748928 -0.072904408 0.61362499 1.4989634e-38
0.037316669 -0.072303094 0.61225003 1.4805963e-38
0.041937694 -0.072160751 0.61026311 1.4897081e-38
0.047057144 -0.070295237 0.61000001 1.4897081e-38
0.064048171 -0.072520547 0.6105715 1.4099065e-38
0.065755241 -0.072738096 0.611 1.2995604e-38
0.037648305 -0.067951433 0.61357141 1.4805963e-38
0.042529669 -0.06758263 0.61174995 1.4896722e-38
0.047652204 -0.067411013 0.61018753 1.4805963e-38
0.051007617 -0.066577137 0.61000007 1.4714486e-38
0.063098446 -0.067459166 0.61062503 1.492198e-38
0.038886666 -0.064031422 0.61400002 1.4805245e-38
0.042722858 -0.063146517 0.61363161 1.4896722e-38
0.047566708 -0.062255796 0.61249983 1.4713768e-38
0.05208363 -0.062470891 0.61018753 1.4714127e-38
0.057594176 -0.062447168 0.61011761 1.4530103e-38
0.061943036 -0.06257645 0.61199999 1.4912613e-38
0.048021268 -0.057957143 0.61366665 1.4804886e-38
0.052557096 -0.057588164 0.61210525 1.4621933e-38
0.057219002 -0.057771929 0.61157143 1.4437186e-38
0.061240003 -0.057414718 0.61345452 1.4538409e-38
0.052923154 -0.052923154 0.61376917 1.4438262e-38
0.057242677 -0.052568872 0.61331242 1.4344991e-38
0.060603969 -0.05300365 0.61383343 1.3889069e-38
0.05391505 -0.048769142 0.61400002 1.4530456e-38
0.056851856 -0.04879513 0.61400002 1.4437186e-38
-0.062015809 -0.21617161 0.6178 1.4342839e-38
-0.057650562 -0.21771881 0.617091 1.4714498e-38
-0.054559998 -0.21648 0.616 1.4806324e-38
-0.062398095 -0.21230789 0.61715794 1.6406107e-38
-0.057553504 -0.21286531 0.61552942 1.5564079e-38
-0.06198341 -0.20772888 0.6181429 1.5402795e-38
-0.057762433 -0.20735291 0.61677784 1.4020589e-38
-0.054559998 -0.20592 0.616 1.4946154e-38
-0.061081272 -0.20307937 0.61866665 1.438683e-38
-0.057576802 -0.20264091 0.61800003 1.2266701e-38
-0.053847529 -0.20201533 0.61590004 1.5220942e-38
-0.057449333 -0.19786966 0.61846673 1.1527319e-38
-0.052858274 -0.19713266 0.61581254 1.5127666e-38
-0.055959523 -0.19438523 0.61849999 1.0143313e-38
-0.052414387 -0.19247001 0.61763161 1.4942912e-38
-0.049017936 -0.19177541 0.61516666 1.4851806e-38
-0.051121816 -0.1874091 0.61827278 1.4667772e-38
-0.047503229 -0.18716609 0.61576927 1.4759609e-38
0.093190476 -0.18579237 0.61799997 1.6302397e-38
-0.05053306 -0.1827094 0.61799997 1.4575219e-38
-0.046882808 -0.18248419 0.61652637 1.4575219e-38
-0.043745242 -0.18201064 0.61516666 1.4850727e-38
0.089173332 -0.18128 0.616 1.2901592e-38
0.091985874 -0.18240681 0.61650002 1.3815636e-38
-0.046521027 -0.17788146 0.61830771 1.4575216e-38
-0.042245027 -0.17751329 0.61605555 1.4574859e-38
-0.038965948 -0.17607833 0.61524999 1.4666695e-38
0.089279585 -0.17797348 0.61500007 1.2991276e-38
0.091436185 -0.17692192 0.616 1.224939e-38
-0.045393333 -0.17390953 0.61900002 1.4667056e-38
-0.042119894 -0.17273122 0.61776477 1.4666696e-38
-0.037929747 -0.17223671 0.61561537 1.4574135e-38
0.088905238 -0.17214334 0.61550003 1.2074371e-38
0.091509528 -0.17237306 0.61772728 1.3077359e-38
-0.041173059 -0.16763838 0.61885715 1.4666695e-38
-0.037699152 -0.16754971 0.61633337 1.47578e-38
-0.034557141 -0.16575715 0.61500001 1.4101224e-38
-0.036827717 -0.16354181 0.61770004 1.5034387e-38
-0.033631828 -0.16199453 0.61591667 1.335789e-38
0.084301904 -0.16094001 0.61900002 1.3549141e-38
0.087839052 -0.16182429 0.61900002 1.2903769e-38
0.090197146 -0.16211906 0.61900008 1.2706753e-38
-0.035960954 -0.15976095 0.61900002 1.5403892e-38
-0.032870002 -0.15760738 0.61750013 1.3907814e-38
-0.028538171 -0.15684383 0.61538464 1.5086493e-38
0.08373823 -0.15813689 0.61857146 1.3550223e-38
0.086798839 -0.15785407 0.61878574 1.3641336e-38
0.090197146 -0.15976095 0.61900002 1.279859e-38
-0.031036628 -0.15282492 0.61846155 1.4449434e-38
-0.027018476 -0.15211724 0.61670005 1.5085417e-38
-0.023414711 -0.15150507 0.61633331 1.5358411e-38
0.085897863 -0.15237643 0.61774999 1.3454786e-38
-0.030065713 -0.14856 0.61900002 1.5552866e-38
-0.027077202 -0.14715755 0.6180625 1.5362002e-38
-0.022325179 -0.14744626 0.61681253 1.5450605e-38
-0.019328572 -0.14584285 0.61500001 1.5450605e-38
0.084538095 -0.14740476 0.61500001 1.3088167e-38
0.085965559 -0.14764778 0.61683333 1.3272911e-38
-0.026612855 -0.14288208 0.61866665 1.5454199e-38
-0.022226192 -0.1426954 0.61772227 1.5450246e-38
-0.018691534 -0.14190975 0.61544448 1.5450605e-38
0.084342852 -0.1435 0.61500001 1.4101954e-38
0.085746035 -0.14271301 0.61666667 1.3825726e-38
-0.021361668 -0.13833427 0.61874998 1.5358411e-38
-0.01764762 -0.1376342 0.61760008 1.5358411e-38
-0.013919642 -0.13670108 0.61537504 1.5358052e-38
0.083148807 -0.13632548 0.61699998 1.373569e-38
-0.016794842 -0.13268676 0.61874998 1.5449529e-38
-0.01302025 -0.13207678 0.61694735 1.5449529e-38
-0.0093714288 -0.13061428 0.61500001 1.5449529e-38
0.082910761 -0.13232103 0.61876923 1.4010843e-38
-0.016506666 -0.12910572 0.61900002 1.5449887e-38
-0.012110266 -0.12737641 0.61855561 1.5449529e-38
-0.0082804337 -0.1274046 0.61699998 1.5357334e-38
0.08186543 -0.12761705 0.61750001 1.3918286e-38
-0.011331957 -0.12347249 0.61900002 1.544917e-38
-0.006926666 -0.12261502 0.61733341 1.3612823e-38
-0.0033695241 -0.12143833 0.61524999 1.2879938e-38
0.079135716 -0.12075476 0.61549997 1.4009397e-38
0.080994405 -0.12288441 0.61737502 1.3548784e-38
-0.0067772227 -0.11834785 0.61874998 9.9354822e-39
-0.0024679366 -0.11731645 0.6165334 1.1045407e-38
0.0011714286 -0.11538571 0.61500001 1.0864949e-38
0.078694642 -0.11745203 0.61662501 1.3826448e-38
-0.0053057144 -0.11495715 0.61900002 1.0124896e-38
-0.0022642605 -0.11265544 0.61863166 1.0863522e-38
0.0017602043 -0.11208511 0.61664289 1.0955351e-38
0.077297144 -0.11271265 0.61685717 1.3458033e-38
-0.0010611429 -0.10811867 0.61900002 1.2705269e-38
0.0024839682 -0.10745508 0.61805558 1.1510306e-38
0.0056736516 -0.10643842 0.61633337 1.1325206e-38
0.07450667 -0.10618667 0.61600006 1.3364032e-38
0.075901143 -0.10767181 0.6178 1.3365114e-38
0.0033897618 -0.10301928 0.61900002 1.1693624e-38
0.007507117 -0.10208326 0.61657894 1.1231578e-38
0.011128572 -0.10074286 0.61500001 1.0862797e-38
0.073951192 -0.10212 0.61624998 1.3088526e-38
0.076048568 -0.10375619 0.61900002 1.327364e-38
0.0041266666 -0.099629521 0.61900002 1.2242486e-38
0.0074954289 -0.098008066 0.6182 1.1229063e-38
0.01209988 -0.097038925 0.61612499 1.1231941e-38
0.073214285 -0.098985717 0.61500001 1.2904855e-38
0.0083712386 -0.093970098 0.61900002 1.3152206e-38
0.012449365 -0.092452303 0.61766678 1.2969976e-38
0.016030952 -0.091884285 0.61583334 1.2692674e-38
0.072511427 -0.090197146 0.61900002 1.3088167e-38
0.013338355 -0.087800004 0.61872727 1.4898157e-38
0.017185101 -0.087024011 0.61621428 1.4897798e-38
0.069756672 -0.085583329 0.61549997 1.3364034e-38
0.071568191 -0.087603234 0.61900002 1.3548425e-38
0.014738095 -0.084301904 0.61900002 1.5266216e-38
0.018002605 -0.082724504 0.61780012 1.5081828e-38
0.02205294 -0.082381226 0.61605889 1.4989992e-38
0.026074523 -0.080568328 0.61524999 1.4897439e-38
0.069253974 -0.082200639 0.61800003 8.9447459e-39
0.070115559 -0.081899047 0.61866665 8.0245847e-39
0.019061271 -0.079192698 0.61900008 1.5082545e-38
0.022502096 -0.077875309 0.61853343 1.5081828e-38
0.027482454 -0.077445567 0.61678952 1.4897798e-38
0.031042857 -0.075557142 0.61500001 1.4989634e-38
0.023496736 -0.073690474 0.61900008 1.4898516e-38
0.027446004 -0.072521038 0.61778271 1.4989634e-38
0.031421125 -0.071752548 0.61618185 1.5081828e-38
0.066508569 -0.070628569 0.61799997 1.3270756e-38
0.027954284 -0.067627303 0.61866665 1.4530815e-38
0.032469772 -0.067369744 0.61700004 1.4898157e-38
0.036035951 -0.065919288 0.61524999 1.4806321e-38
0.065461151 -0.067338854 0.61700004 1.3638095e-38
0.033077762 -0.062874094 0.61864299 1.4347144e-38
0.037328437 -0.06207497 0.61657143 1.4714486e-38
0.041309286 -0.060645953 0.61524999 1.4804886e-38
0.063946664 -0.062186666 0.616 1.3638097e-38
0.065630667 -0.06209619 0.61860001 1.317712e-38
0.034781903 -0.059541903 0.61900002 1.3427354e-38
0.037880003 -0.057998769 0.61871427 1.3886531e-38
0.04228577 -0.057555173 0.61668754 1.4713768e-38
0.046455242 -0.056420479 0.61549997 1.4621933e-38
0.063691616 -0.05712324 0.61579996 1.4188021e-38
0.066759527 -0.057333648 0.61849999 1.2717581e-38
0.043022249 -0.053416364 0.61881816 1.361246e-38
0.047525045 -0.052426703 0.61737514 1.4346785e-38
0.051347621 -0.051347621 0.61500001 1.4530456e-38
0.063113421 -0.052333683 0.61618185 1.39993e-38
0.066432662 -0.053970888 0.6188572 1.2441353e-38
0.048438217 -0.047996309 0.618375 1.3243683e-38
0.051875785 -0.047056742 0.61642104 1.4163473e-38
0.057798788 -0.046291601 0.6152727 1.425208e-38
0.06201395 -0.04769104 0.61735302 1.4448741e-38
0.053482942 -0.042687222 0.61825001 1.2785223e-38
0.057703808 -0.042392615 0.61825007 1.3885814e-38
0.061506987 -0.042642225 0.61900002 1.4076703e-38
0.054236192 -0.038908571 0.61900002 1.2154636e-38
0.05761255 -0.038426235 0.61900002 1.2231346e-38
0.060720954 -0.038908571 0.61900002 1.3882944e-38
-0.07131429 -0.21572572 0.62400001 1.7420257e-38
-0.067488737 -0.21708444 0.62249994 1.5275236e-38
-0.063282862 -0.21882856 0.62100005 1.4621218e-38
-0.071229286 -0.21249859 0.62325001 1.5955605e-38
-0.067413904 -0.21257114 0.6212666 1.6598446e-38
-0.071027219 -0.20781933 0.62371433 1.4754895e-38
-0.067537956 -0.20764406 0.62205005 1.4940011e-38
-0.064170003 -0.20640858 0.62099999 1.5032202e-38
-0.067292444 -0.20258476 0.62306672 1.4569051e-38
-0.063177511 -0.20217282 0.62084609 1.4569777e-38
-0.066128574 -0.19798857 0.6236667 1.4383211e-38
-0.062886402 -0.197401 0.62161112 1.4291015e-38
-0.059342857 -0.19633333 0.62 1.3553451e-38
-0.062186673 -0.19294314 0.62276924 1.4105535e-38
-0.058031797 -0.19229603 0.62105554 1.2261632e-38
-0.054323807 -0.19131428 0.62 1.5308084e-38
-0.061211437 -0.18804899 0.62400001 1.3736026e-38
-0.057041276 -0.18764128 0.62171435 1.1892855e-38
-0.053565394 -0.18708383 0.62033331 1.4851079e-38
-0.060022857 -0.18482286 0.62400001 1.3275763e-38
-0.056969196 -0.18248481 0.62270588 1.1616617e-38
-0.052609526 -0.18196301 0.62066662 1.4666685e-38
-0.055605404 -0.17848985 0.62333339 8.30551e-39
-0.052262653 -0.17738305 0.62199992 1.4113154e-38
-0.048368301 -0.17667387 0.62042856 1.4574858e-38
-0.051779501 -0.17273824 0.62299997 1.3929111e-38
-0.047428772 -0.17205264 0.62126315 1.448374e-38
-0.043915875 -0.17113303 0.62033331 1.4575216e-38
