# .PCD v0.7 - Point Cloud Data file format
VERSION 0.7
FIELDS x y z descriptor multiplicity pointId
SIZE 4 4 4 4 4 4
TYPE F F F F I I
COUNT 1 1 1 128 1 1
WIDTH 60
HEIGHT 1
VIEWPOINT 0 0 0 1 0 0 0
POINTS 60
DATA ascii
-0.03764762 -0.038923811 0.67000002 0 0 0 1 5 3 0 0 1 0 0 4 18 7 6 7 1 0 3 11 8 12 88 42 13 1 7 5 1 39 88 30 0 0 0 0 9 3 0 0 58 1 0 1 7 4 4 31 144 4 0 0 0 16 122 144 18 1 0 0 0 134 144 80 0 0 0 2 9 1 0 0 85 25 0 1 5 1 0 3 144 144 1 0 0 3 6 29 60 78 17 3 0 40 62 20 0 0 0 1 7 1 0 0 12 19 0 1 5 4 0 0 74 144 26 0 1 1 0 0 21 144 144 4 0 0 0 3 1 32644
-0.10447714 -0.040288571 0.71700001 1 0 1 24 89 25 6 1 18 3 3 34 73 2 2 11 69 5 1 2 6 10 80 86 11 5 0 0 6 47 89 19 2 0 9 71 130 3 1 1 57 19 35 72 23 1 16 18 130 32 3 2 6 6 11 40 26 1 0 1 88 44 12 5 14 1 1 8 130 26 6 18 54 5 3 5 23 6 114 130 130 5 0 0 6 1 52 130 20 1 0 2 112 20 0 6 24 6 0 0 130 36 0 5 78 98 26 0 16 8 12 35 17 94 25 0 2 1 13 29 5 8 0 2 51 31 0 2 1 32644
-0.048428573 -0.038097143 0.67799997 63 121 9 0 0 1 30 21 5 26 44 26 7 1 32 30 3 1 15 58 133 21 14 13 1 0 0 1 42 31 140 73 9 140 76 0 0 0 0 0 9 78 140 53 0 0 0 0 139 43 96 46 9 3 6 38 38 1 9 23 6 2 29 79 0 22 22 1 1 5 2 0 61 21 73 14 2 7 2 6 140 41 13 2 2 1 0 19 63 8 3 21 33 17 10 12 0 0 0 0 0 2 1 0 28 11 0 0 1 6 1 2 140 140 2 0 0 0 0 1 32 100 28 3 2 9 10 3 1 32644
-0.048428573 -0.038097143 0.67799997 0 0 1 2 1 0 0 0 9 1 1 6 2 0 0 13 34 0 0 1 0 0 13 137 4 0 0 2 9 11 101 137 0 0 2 4 1 6 60 18 58 5 3 7 2 21 75 22 137 15 0 0 0 1 10 131 46 11 1 5 37 18 11 66 1 0 1 1 0 7 137 118 11 1 3 1 0 80 137 21 127 40 9 3 7 48 103 46 27 78 92 7 9 13 1 1 13 5 9 18 18 7 27 40 9 37 28 10 6 25 43 2 8 13 6 6 74 90 24 1 0 17 105 41 107 23 0 0 1 32644
-0.05537143 -0.034525715 0.68400002 19 0 0 0 6 34 41 132 10 3 8 9 0 0 60 132 13 15 7 2 30 5 9 41 8 12 2 11 132 8 0 1 86 28 5 10 12 13 8 68 26 14 16 47 41 6 2 21 57 44 15 12 37 1 1 7 10 9 1 26 132 0 0 0 104 132 21 16 4 1 0 0 30 65 3 4 32 36 23 12 40 4 4 29 44 6 19 46 8 1 0 77 132 1 1 15 46 132 8 2 0 1 1 1 11 132 106 1 0 2 5 2 1 19 132 91 16 0 4 5 27 8 22 81 63 2 2 37 1 32644
-0.052919999 -0.02548 0.68599999 27 3 2 7 0 0 17 80 12 6 12 2 0 0 132 132 19 10 12 1 0 6 132 53 10 17 28 3 4 51 45 7 58 55 25 2 14 32 30 35 32 77 132 27 1 0 16 34 87 106 99 8 0 3 24 10 23 16 8 4 1 55 27 2 0 7 14 60 115 46 17 1 70 22 72 24 14 3 18 7 132 49 13 2 2 0 2 29 35 14 15 17 21 12 2 5 0 0 2 22 33 66 132 0 20 2 1 3 2 15 132 16 111 49 3 1 2 13 76 33 16 45 39 3 8 16 6 1 1 32644
-0.044882856 -0.014960952 0.68300003 0 0 0 3 87 12 2 0 17 12 1 2 45 2 0 6 45 72 37 10 2 5 31 65 1 6 31 61 24 60 44 11 0 0 0 29 94 15 0 0 70 1 0 13 60 3 0 15 143 2 0 1 4 17 43 143 18 0 0 0 68 143 82 40 0 0 0 86 42 1 0 0 92 10 0 18 29 1 0 1 143 97 0 0 2 5 1 12 50 33 9 2 13 69 51 11 0 0 0 10 48 5 0 0 22 14 0 1 18 4 0 0 110 143 20 0 1 1 0 0 15 113 143 19 0 0 2 0 1 32644
-0.058082856 0.00066761905 0.70099998 0 6 118 39 17 5 3 0 21 62 24 75 42 3 11 5 35 118 105 5 1 4 8 3 0 14 118 13 1 1 1 0 2 0 27 10 21 97 88 6 64 9 7 17 13 44 87 102 12 26 50 4 8 118 109 25 0 11 107 2 2 55 71 0 3 0 6 26 104 59 26 4 118 24 1 1 52 38 15 29 62 18 6 6 22 118 40 9 2 1 2 12 11 86 118 4 0 0 23 34 24 12 4 0 55 37 11 5 19 13 9 6 20 40 90 32 5 8 5 0 4 12 50 54 9 7 3 1 1 32644
-0.021465715 0.011058095 0.68300003 1 12 16 15 88 81 25 2 51 1 0 5 65 23 37 78 33 22 16 10 4 68 83 34 2 16 60 31 5 47 36 0 11 45 117 67 42 4 2 1 117 23 19 35 32 4 6 39 47 14 57 23 2 71 40 16 2 17 16 2 2 74 107 2 12 9 24 8 0 68 92 1 117 80 53 25 3 31 44 8 11 72 117 83 8 16 3 0 2 117 117 2 0 1 7 2 1 11 12 17 7 46 75 4 8 18 20 31 15 71 75 4 5 14 14 9 46 112 15 5 4 32 49 0 2 16 51 16 1 32644
-0.021465715 0.011058095 0.68300003 32 56 8 45 22 2 4 20 4 1 3 117 58 4 14 2 89 29 6 24 11 2 11 71 47 30 43 22 4 1 2 85 18 16 52 91 23 4 16 18 73 15 7 50 29 18 109 55 39 40 15 2 3 92 117 17 8 48 117 19 17 58 24 1 23 7 49 43 16 5 2 53 117 24 7 8 0 2 16 117 43 4 8 89 22 49 52 11 3 1 6 53 88 60 38 8 63 0 0 11 13 1 2 117 37 0 1 28 23 3 14 117 12 4 9 117 43 1 1 6 78 19 7 34 7 5 34 34 1 32644
-0.10274286 0.019131429 0.74400002 17 6 0 0 0 0 1 27 107 13 0 0 0 0 0 38 152 9 0 0 0 0 0 64 152 18 0 0 0 0 0 37 18 4 1 0 0 0 5 43 94 53 6 0 0 1 4 18 152 22 0 0 0 0 0 68 152 7 0 0 0 0 0 50 9 0 0 0 0 1 16 25 77 17 1 0 0 1 17 34 152 93 0 0 0 0 0 24 147 63 0 0 0 0 0 6 14 9 1 4 4 1 1 5 34 27 5 5 3 0 1 19 152 75 0 0 0 0 0 100 131 25 0 0 0 0 0 51 1 32644
-0.09386 0.028934285 0.741 40 8 1 0 7 10 2 5 170 32 0 0 0 0 0 3 170 21 0 0 0 0 0 1 41 4 0 0 1 1 0 3 44 6 2 1 2 2 1 16 170 29 0 0 0 0 0 17 170 42 0 0 0 0 0 1 60 16 0 0 0 0 0 0 62 1 0 0 0 0 1 26 170 2 0 0 0 0 0 63 170 10 0 0 0 0 0 18 63 14 0 0 1 0 0 0 42 0 0 0 0 0 5 50 124 0 0 0 0 0 0 82 170 1 0 0 0 0 0 65 40 7 0 0 0 0 0 5 1 32644
0.0061914288 -0.17279714 0.59100002 53 25 4 1 35 24 2 3 38 24 12 14 122 50 1 1 31 4 0 3 115 49 3 2 122 22 0 0 1 2 3 22 39 35 15 9 90 36 1 2 81 52 32 18 56 47 17 18 23 4 1 7 118 122 23 9 122 92 3 3 14 10 2 10 42 85 18 13 59 37 2 3 122 20 2 8 47 26 6 17 31 10 1 14 122 87 3 3 24 113 5 7 41 30 1 0 81 61 11 7 3 1 12 24 68 28 4 7 12 7 23 20 26 26 2 5 122 78 0 0 13 10 0 2 86 42 1 0 1 32644
0.026006667 -0.16876666 0.58099997 67 24 1 10 103 4 0 0 81 63 6 9 86 12 0 0 8 4 2 6 117 26 0 0 117 14 0 0 4 1 1 10 94 16 0 2 117 25 1 2 117 45 4 5 72 30 5 30 21 5 2 9 117 97 5 9 117 30 0 2 18 7 0 8 75 70 16 11 77 18 0 1 117 37 13 17 64 18 2 11 23 15 8 67 117 13 1 3 89 74 3 11 31 1 0 0 5 97 55 11 6 1 2 1 14 46 117 28 8 2 12 3 3 15 62 83 48 3 6 1 16 34 6 12 9 0 1 13 1 32644
0.039083809 -0.16018857 0.57800001 8 4 27 4 0 11 98 108 1 7 22 3 4 115 115 5 0 0 0 0 16 115 13 0 1 0 0 0 3 5 2 1 24 21 114 63 27 29 9 31 115 87 81 12 21 71 12 12 19 4 0 17 115 115 2 1 5 1 0 2 31 12 0 2 19 45 18 8 18 102 40 13 115 14 28 78 14 21 37 65 18 3 7 115 115 6 4 9 1 1 0 8 21 7 38 8 1 64 77 3 6 20 5 1 3 7 88 97 1 2 9 16 6 0 4 70 4 1 27 74 9 8 1 1 0 6 71 47 1 32644
-0.065219045 -0.15420952 0.63999999 64 101 4 2 48 51 11 47 12 3 1 2 65 90 64 85 20 14 0 0 5 103 119 62 31 119 8 1 5 63 17 3 119 119 43 10 13 7 10 19 98 46 35 14 20 19 12 70 25 1 0 5 43 58 15 55 7 7 5 20 85 94 13 3 75 34 48 14 10 4 13 25 119 47 29 7 0 0 0 45 31 14 25 37 22 5 1 5 1 7 4 10 119 46 3 1 54 4 2 5 11 8 25 34 119 42 68 17 0 0 1 26 16 41 96 30 0 0 0 1 9 28 11 7 43 24 4 1 1 32644
-0.054078095 -0.13792953 0.63800001 4 10 43 119 119 10 4 12 81 92 35 47 26 8 10 10 26 48 18 25 26 11 18 10 119 58 3 17 24 19 14 12 1 8 29 41 49 35 20 5 34 37 6 1 10 62 38 13 119 67 22 10 6 18 15 27 119 70 22 45 20 35 24 19 1 1 1 0 1 54 116 50 8 1 0 2 28 119 85 55 66 23 41 49 34 55 11 12 90 76 51 109 18 3 0 0 6 2 2 3 10 77 48 15 0 0 2 47 108 48 13 13 4 2 11 60 89 25 4 5 37 14 1 8 19 26 38 16 1 32644
-0.054078095 -0.13792953 0.63800001 3 1 4 124 97 14 20 5 4 1 0 95 51 66 90 14 16 10 6 3 2 14 42 65 2 2 13 15 5 25 81 84 55 30 34 124 15 7 21 23 16 10 40 124 37 54 42 7 120 21 17 24 6 11 23 77 41 15 12 0 0 2 54 102 12 17 11 36 42 15 30 23 22 10 20 94 83 9 1 2 124 76 35 5 2 1 0 12 90 102 48 0 0 0 1 8 10 20 8 42 39 34 28 16 20 11 10 57 38 32 107 63 33 14 3 1 10 29 52 51 29 79 21 2 7 5 1 0 1 32644
-0.077665716 -0.12060285 0.66299999 34 16 4 6 1 1 45 62 115 66 1 1 48 29 5 69 4 4 0 1 115 115 83 3 1 0 0 1 45 115 71 6 19 30 16 14 2 2 19 26 115 90 16 8 7 10 8 49 28 11 14 103 79 61 20 2 1 0 0 37 115 73 20 11 17 104 95 6 0 0 3 11 42 115 110 13 0 0 2 27 6 19 74 115 9 2 8 36 4 1 2 21 22 48 23 24 34 24 12 1 0 2 20 77 32 18 9 4 2 1 4 107 6 4 56 32 2 0 6 47 4 9 59 28 7 5 3 7 1 32644
-0.077665716 -0.12060285 0.66299999 90 79 5 0 1 4 4 12 53 19 6 1 4 25 21 19 33 10 6 2 4 32 60 97 4 0 6 29 5 31 122 33 92 7 0 0 0 17 79 40 122 28 3 0 1 15 55 70 31 12 15 36 21 9 76 122 5 0 26 122 105 20 18 21 13 17 8 3 1 37 74 10 78 104 32 0 0 25 31 16 8 73 122 50 21 5 6 9 0 0 46 122 122 22 0 0 17 105 26 4 0 4 5 1 8 50 12 9 10 29 19 1 0 8 39 49 48 20 18 1 0 0 22 75 40 43 40 1 1 32644
-0.077665716 -0.12060285 0.66299999 28 29 12 8 38 8 1 10 0 0 0 1 94 58 36 18 7 0 0 2 9 18 96 111 21 2 0 3 7 10 18 33 43 2 0 3 48 6 2 51 49 1 0 1 41 21 73 112 7 1 0 9 47 102 105 66 16 3 2 19 32 35 44 12 21 13 31 19 29 3 1 11 116 65 16 6 12 6 6 29 29 43 67 18 9 92 58 9 1 26 24 6 63 116 84 3 1 10 31 22 60 40 0 0 25 116 98 23 9 0 0 0 4 73 116 116 0 0 0 0 1 116 116 25 34 16 1 0 1 32644
0.017206667 -0.069420002 0.62300003 34 0 0 0 13 1 0 2 185 0 0 0 1 0 0 16 106 0 0 0 0 0 1 7 1 0 0 10 23 0 0 2 48 0 0 0 15 3 0 3 185 0 0 0 2 0 0 25 119 0 0 0 0 1 1 11 1 0 0 30 75 0 0 1 51 0 0 1 12 3 0 6 185 0 0 0 1 0 0 30 109 0 0 0 1 1 2 9 0 0 0 56 148 1 1 1 52 0 0 3 6 0 0 4 185 0 0 0 0 0 0 34 71 0 0 2 6 0 1 10 0 0 0 63 185 0 0 0 1 32644
-0.031920001 0.0058628572 0.68400002 16 32 32 17 1 9 36 20 20 22 18 99 41 5 5 11 131 81 7 14 9 2 14 40 20 14 3 33 88 15 14 9 18 21 37 14 6 16 80 56 47 2 10 42 82 76 39 8 131 19 2 5 20 7 1 42 32 8 2 18 131 12 1 8 102 28 1 8 38 11 29 33 32 10 1 24 131 31 11 3 131 119 34 10 23 2 2 11 19 26 42 83 86 5 2 4 91 10 1 8 42 5 2 25 18 3 0 28 131 6 1 20 54 24 7 3 14 13 31 120 16 5 9 15 51 45 22 16 1 32644
-0.057314284 0.015508572 0.708 111 112 20 0 1 5 4 3 13 41 47 16 22 40 16 3 29 73 42 8 18 18 4 2 18 66 112 9 1 0 0 0 46 112 61 1 33 47 6 6 112 112 72 12 5 3 4 22 23 12 18 79 52 28 8 15 25 75 30 24 9 1 4 19 38 11 1 3 37 112 89 16 112 112 26 15 3 31 21 13 29 37 30 104 20 2 4 56 18 7 3 15 19 5 24 112 74 21 2 25 30 70 55 16 11 37 6 40 75 70 14 4 96 74 5 3 2 0 2 21 54 27 0 1 19 20 3 20 1 32644
0.024814285 -0.17811143 0.579 32 13 1 15 130 11 0 0 130 52 3 7 25 8 1 8 32 24 3 14 53 21 1 3 70 38 0 1 8 0 0 0 41 13 2 7 130 29 1 3 130 21 1 3 27 16 4 40 46 17 2 22 114 56 5 14 90 59 1 3 10 2 0 0 46 14 4 34 130 39 2 8 130 100 10 20 46 4 0 10 39 32 14 76 130 2 0 2 90 62 2 7 8 0 0 0 10 18 42 82 51 5 6 1 57 116 29 18 11 1 12 47 12 34 41 42 26 12 86 38 65 31 1 2 2 17 22 2 1 32644
0.0854 -0.17254286 0.61000001 1 0 0 0 0 0 69 60 2 0 0 0 0 2 116 86 128 0 0 0 1 8 59 73 128 0 0 0 0 0 0 21 4 0 0 0 0 0 71 79 8 4 9 4 6 9 74 66 128 1 4 11 34 32 24 21 128 0 0 0 0 0 0 15 2 1 73 40 0 0 15 16 7 11 128 46 3 1 12 20 128 17 59 33 17 2 6 14 128 1 0 0 0 0 0 11 1 1 63 31 0 0 78 68 1 2 33 14 10 10 117 61 128 4 6 1 15 12 27 28 128 0 0 0 0 0 0 10 1 32644
-0.1071981 -0.14571238 0.67400002 38 54 4 3 23 97 30 10 0 1 5 9 21 112 116 16 14 4 4 4 1 10 116 65 11 1 3 26 29 21 96 86 32 36 12 8 9 20 51 38 9 11 20 54 68 48 24 3 109 33 17 35 20 3 10 18 14 5 24 116 58 3 3 7 6 49 23 6 9 20 37 10 8 7 23 36 110 78 18 11 71 15 25 20 58 18 8 36 3 3 6 44 116 65 3 0 0 12 15 7 4 116 116 1 0 7 50 74 50 116 38 1 12 58 106 16 13 22 31 19 10 20 11 2 22 69 12 9 1 32644
-0.10990857 -0.069451429 0.708 0 0 115 7 1 4 16 0 0 3 123 19 5 4 2 0 7 28 123 5 0 0 2 5 1 5 107 14 1 3 19 3 1 22 17 12 29 24 68 3 19 11 27 109 110 21 7 1 123 33 31 25 5 0 9 57 15 1 24 28 7 7 64 26 49 89 30 62 51 2 4 8 53 20 6 123 123 1 0 1 123 107 7 12 11 4 0 16 19 24 33 30 29 45 25 4 21 7 9 65 62 6 24 20 19 11 1 57 83 6 27 28 59 123 14 1 3 2 78 48 5 61 72 3 1 7 45 11 1 32644
-0.077859998 -0.066082858 0.68699998 1 1 63 83 20 5 7 3 35 59 31 20 13 3 8 91 10 20 81 25 1 7 115 114 6 18 45 16 2 45 121 23 13 1 3 11 21 16 17 3 121 18 4 4 7 5 6 121 47 11 30 15 3 10 43 107 9 4 50 50 2 21 61 10 14 3 7 31 78 73 73 11 121 90 19 6 31 11 4 39 33 33 100 37 1 2 42 43 1 6 62 45 2 4 80 28 13 2 55 97 41 8 6 4 121 42 11 13 15 1 6 61 20 15 70 20 0 0 51 51 9 17 52 19 1 0 35 30 1 32644
-0.07294286 -0.051914286 0.69 7 89 65 2 1 6 7 3 1 42 123 34 7 4 22 5 10 96 123 26 10 8 11 0 19 72 105 26 20 1 0 0 15 1 3 0 3 14 19 15 80 4 15 1 6 34 98 90 8 12 35 1 84 123 69 13 1 24 55 5 10 12 14 2 29 2 0 0 3 62 101 43 123 19 0 0 26 56 34 30 43 7 0 0 123 97 21 6 5 1 0 0 26 29 43 4 66 6 1 0 14 49 25 47 85 6 0 0 47 80 15 12 51 4 0 2 55 87 69 4 4 0 0 9 28 76 100 10 1 32644
-0.056591429 -0.038378093 0.68300003 1 0 1 3 4 0 0 1 70 40 0 0 1 0 1 66 86 88 13 21 8 15 17 81 2 5 19 119 50 86 18 6 19 4 3 1 0 0 0 5 122 17 1 0 0 0 2 122 51 15 11 1 3 20 24 122 5 3 12 6 11 122 55 13 33 3 1 0 0 0 2 17 122 66 14 0 0 5 17 82 33 62 122 3 2 20 35 18 6 13 122 18 5 11 24 30 40 3 4 1 0 0 78 43 122 3 2 0 0 10 52 116 15 4 26 2 1 40 122 31 2 3 15 9 22 7 78 50 1 32644
-0.0136 0.016190477 0.68000001 6 16 92 82 30 17 1 2 61 78 52 37 19 13 3 19 23 20 48 92 81 38 5 8 70 7 5 15 20 23 11 38 13 2 34 45 47 1 0 6 101 38 24 12 9 13 28 124 35 10 21 38 127 103 37 33 127 18 2 8 38 13 2 10 33 2 0 9 62 0 0 2 127 38 0 4 19 4 3 32 46 12 1 6 127 72 6 16 127 3 0 2 48 20 4 39 29 0 0 6 38 0 0 1 127 6 1 2 6 2 0 15 48 4 2 23 127 31 1 7 89 20 7 8 42 15 2 25 1 32644
-0.017773334 -0.17486666 0.602 0 0 6 92 135 30 25 1 0 0 78 125 19 2 9 2 1 14 95 49 0 0 11 7 2 35 43 11 1 1 11 10 1 0 3 73 135 25 0 0 45 8 21 52 75 8 20 34 9 6 28 15 1 3 83 48 2 6 41 15 0 1 41 30 1 2 1 2 135 108 0 0 41 52 31 6 135 55 1 6 18 26 81 39 1 2 21 13 0 1 68 22 0 1 42 13 11 19 0 0 135 91 0 0 11 18 5 2 135 119 0 0 41 57 32 4 7 4 13 12 1 11 68 6 0 0 28 10 1 32644
-0.061002858 -0.12878381 0.64700001 28 28 10 6 4 6 59 58 11 22 41 42 19 12 13 8 30 63 88 20 6 12 11 21 47 55 73 3 1 1 3 45 23 25 43 26 9 24 19 13 79 21 26 23 17 37 44 32 28 32 22 19 67 93 45 12 42 130 67 3 10 3 3 36 7 3 18 21 29 89 31 6 62 33 82 46 18 19 9 15 14 8 81 90 58 16 15 65 23 14 7 5 10 3 54 157 21 50 37 21 18 24 6 3 7 3 17 25 21 66 61 69 5 1 13 11 0 1 97 157 6 0 30 43 0 0 56 157 1 32644
0.090771429 0.038325716 0.70599997 0 0 1 42 42 1 0 0 62 24 2 26 13 0 0 12 145 55 17 4 0 10 28 75 2 1 16 15 5 54 35 7 0 0 0 10 97 17 0 0 113 30 5 19 25 5 1 11 162 45 1 1 0 16 37 77 29 1 0 0 0 162 86 14 1 0 0 0 92 40 7 4 79 5 1 3 19 29 52 94 162 22 0 0 0 1 7 107 60 12 5 2 3 40 7 2 5 0 0 0 59 33 8 19 55 11 2 0 0 2 20 87 162 59 1 0 0 0 2 36 39 28 6 1 0 0 0 0 1 32644
-0.01188 -0.19630286 0.59399998 3 98 123 0 0 3 2 2 15 123 93 12 2 0 0 1 18 30 46 123 111 0 0 1 123 4 1 26 38 0 0 10 25 22 12 3 24 17 8 8 122 95 22 13 9 1 0 2 63 19 23 113 78 0 0 13 123 2 1 12 23 1 0 60 22 0 0 3 39 7 4 21 107 4 1 12 19 1 1 32 113 2 1 38 86 0 0 23 123 0 0 4 33 1 0 56 18 6 1 4 9 2 3 16 26 8 1 12 23 0 1 20 123 1 0 23 53 0 0 21 123 0 0 5 35 0 0 28 1 32644
-0.060786668 -0.10465334 0.65799999 4 4 22 43 20 30 44 4 79 55 8 8 13 13 14 40 43 127 90 7 3 2 5 11 3 55 127 39 20 8 5 5 23 18 54 94 47 67 28 21 127 41 15 11 13 3 13 52 17 30 66 65 105 9 6 5 6 33 127 41 13 8 10 1 5 3 8 26 127 127 51 19 52 40 53 41 11 6 18 36 20 7 31 72 57 18 23 12 8 5 8 10 59 51 44 9 16 7 4 17 127 127 0 0 72 27 19 15 35 29 17 24 24 14 14 28 14 26 34 18 21 11 3 3 25 28 40 15 1 32644
-0.077530473 -0.17154381 0.64099997 25 40 31 1 0 0 4 16 35 65 78 7 0 1 17 20 134 134 36 0 0 0 1 6 28 55 57 0 0 1 4 6 100 26 7 3 3 2 6 22 62 12 6 16 7 6 33 31 134 31 2 2 1 1 3 11 85 31 2 0 0 1 6 7 86 8 1 3 2 1 134 61 46 5 2 7 6 23 124 39 134 10 1 1 0 4 33 63 73 30 2 3 3 0 1 10 3 52 84 0 0 0 134 34 2 50 41 0 0 28 134 16 27 15 5 0 0 12 134 49 22 1 0 12 28 9 56 32 1 32644
0.071674287 0.075548574 0.67799997 132 33 0 0 10 5 4 56 59 3 0 1 57 40 7 25 132 8 1 0 2 12 12 68 19 4 2 3 35 99 13 9 132 0 0 1 8 11 77 132 41 1 0 1 47 60 11 35 132 49 29 11 6 7 6 32 14 23 108 62 41 12 0 0 3 0 0 1 4 46 132 35 3 0 0 4 17 54 121 31 14 4 12 45 47 36 47 55 4 8 54 39 40 31 5 4 0 0 39 36 1 20 42 0 0 0 65 124 6 20 48 2 2 2 54 132 14 5 10 3 8 5 17 33 10 4 1 2 1 32644
0.037689023 -0.17435956 0.5727095 3 0 1 21 57 38 6 1 117 1 1 3 8 1 0 115 87 1 3 25 2 2 48 135 3 6 13 44 7 37 66 12 20 2 15 81 27 2 0 2 135 19 1 5 2 0 0 69 125 18 8 99 22 2 2 39 26 13 14 73 10 2 7 25 17 9 12 12 0 0 0 0 135 135 13 1 0 0 0 2 40 135 47 17 18 7 10 7 9 26 37 15 6 4 31 68 1 3 2 2 7 6 1 1 5 83 20 0 0 1 14 3 1 135 103 0 0 4 9 1 2 58 135 29 0 0 1 3 1 32644
0.0053080479 -0.16677102 0.5930115 31 0 0 30 54 0 0 10 129 0 0 2 5 0 0 126 52 7 6 69 76 2 1 44 41 40 11 24 21 2 4 52 81 0 0 18 36 0 0 15 129 17 4 11 24 0 0 54 44 15 9 79 129 5 1 25 52 60 16 23 23 14 13 78 83 3 0 7 13 0 2 40 129 73 33 16 7 6 31 49 47 16 35 52 69 13 15 60 77 1 1 49 34 11 9 119 126 1 0 2 3 0 2 72 68 3 3 16 16 28 61 80 54 4 6 14 12 27 29 50 42 1 1 48 101 4 0 29 2 32644
0.0053080479 -0.16677102 0.5930115 69 12 1 22 71 3 1 14 21 27 49 26 43 6 6 20 9 11 47 91 134 4 2 5 16 0 0 20 98 3 0 3 51 6 4 67 124 1 1 36 64 15 24 37 57 19 38 49 9 2 19 37 134 103 33 13 29 0 0 10 82 9 0 5 25 25 16 91 74 37 13 15 134 19 1 23 40 20 10 35 45 1 0 17 134 49 4 6 39 0 0 3 109 7 0 9 22 2 1 28 40 59 22 27 109 3 1 17 36 20 11 50 20 1 0 72 134 1 0 5 42 0 0 11 64 2 0 7 2 32644
0.061996728 -0.16052587 0.57697195 12 1 0 1 8 1 1 7 54 1 0 0 1 3 43 123 9 5 9 2 2 2 113 145 4 7 31 4 0 0 86 66 37 7 0 3 13 2 0 1 153 10 0 0 1 3 9 62 48 4 10 4 7 29 111 48 3 6 19 2 0 2 90 56 38 2 0 1 16 5 0 3 153 13 0 0 0 1 2 11 124 10 3 2 0 3 43 18 0 2 15 12 1 3 37 8 30 1 0 2 10 2 0 1 153 10 4 6 1 0 0 5 86 12 115 92 6 0 0 4 0 2 153 119 1 0 3 5 1 32644
-0.064624794 -0.17242298 0.63238257 0 0 4 8 71 124 28 3 34 7 4 1 6 24 61 113 89 81 27 0 0 5 20 40 10 34 77 19 10 10 2 7 7 0 0 0 124 63 1 6 121 2 0 0 23 19 30 119 20 9 4 0 9 100 68 43 17 10 15 5 2 15 11 45 8 2 0 0 124 69 0 1 124 60 0 1 39 16 3 15 63 26 3 13 63 69 6 8 6 2 11 66 41 18 2 5 1 1 0 1 124 49 0 0 57 120 13 5 73 12 0 0 21 117 44 41 33 2 0 0 0 3 2 49 52 18 6 0 1 32644
-0.056694537 -0.16790263 0.62878752 0 8 138 28 0 0 1 1 0 22 138 26 0 0 0 0 0 2 138 138 10 2 0 0 0 0 138 138 4 4 5 0 40 57 138 25 0 5 16 33 119 104 138 10 3 2 0 17 11 11 61 86 62 68 10 2 0 0 36 43 20 69 70 0 28 3 1 0 5 15 38 81 59 70 33 1 0 8 20 27 9 25 73 21 10 11 4 14 8 3 5 3 17 40 13 8 62 3 0 0 10 10 13 44 12 3 1 0 8 58 29 19 13 4 9 12 2 8 6 28 9 25 23 14 1 6 5 8 1 32644
-0.056694537 -0.16790263 0.62878752 0 0 16 24 8 34 45 3 29 11 1 14 36 74 49 16 136 129 0 1 3 11 29 41 104 57 0 0 1 2 0 1 2 0 1 33 48 36 35 6 45 3 0 2 15 27 77 79 136 51 8 7 0 3 80 90 136 116 3 0 0 0 0 3 4 6 3 25 14 18 18 4 76 31 7 6 4 14 13 20 28 76 53 90 28 1 7 8 122 136 26 12 6 0 0 0 24 45 8 0 1 7 6 12 8 5 4 21 7 12 16 7 3 12 13 62 83 5 1 1 100 136 6 13 33 2 0 0 1 32644
-0.0799447 -0.16795661 0.64357966 17 56 127 25 0 0 0 1 1 7 127 116 4 0 0 0 8 17 127 69 0 0 0 7 42 7 35 41 0 0 2 29 58 54 76 12 7 9 7 82 19 19 44 71 99 57 7 13 127 38 33 11 11 6 1 53 48 2 2 2 2 1 10 91 57 3 0 1 9 12 10 127 18 3 0 5 127 116 10 19 127 56 2 2 35 25 3 20 54 45 27 13 3 1 2 12 31 6 0 4 11 3 28 23 7 4 1 39 127 6 2 2 46 62 3 8 45 2 1 22 32 60 24 2 0 0 0 40 2 32644
-0.0799447 -0.16795661 0.64357966 1 0 2 13 13 29 28 7 1 0 3 24 115 65 6 2 53 1 6 13 27 5 1 88 50 10 10 4 5 1 1 88 2 3 29 57 20 4 5 6 19 5 8 123 123 11 1 3 123 17 6 21 22 2 1 66 30 4 15 53 29 2 1 27 0 0 28 87 20 15 37 2 18 1 6 68 79 51 54 23 123 25 18 29 15 13 27 55 10 8 71 123 18 9 3 1 0 0 0 3 4 30 123 27 0 0 0 0 2 92 123 12 3 0 1 7 13 91 123 25 0 0 8 26 27 114 93 8 1 32644
-0.050048918 -0.16339946 0.62512439 32 13 25 11 1 6 11 28 145 39 26 8 0 9 20 60 129 2 0 1 1 0 0 49 1 0 0 1 2 2 1 0 14 12 44 79 23 1 1 1 184 63 27 29 8 0 0 16 184 3 0 1 2 1 0 16 0 0 0 1 1 1 0 0 37 5 48 70 23 7 0 1 184 9 4 16 4 0 0 34 167 0 0 2 4 1 0 17 0 0 1 3 2 0 0 0 39 3 5 14 34 50 6 21 184 4 1 1 1 4 3 88 94 1 0 3 2 0 0 13 0 0 0 1 1 0 0 1 1 32644
0.059031069 -0.14870661 0.57779253 0 0 0 4 13 2 0 1 80 4 0 5 9 0 0 1 170 17 15 42 28 16 5 7 6 4 142 149 42 40 85 14 0 0 0 14 16 0 0 0 102 8 0 7 10 1 0 1 170 8 0 3 14 27 43 49 21 1 3 9 19 54 170 82 0 0 0 8 15 0 0 0 101 1 0 1 5 2 2 8 170 18 4 1 0 0 2 21 54 16 53 21 0 0 17 18 0 0 0 5 11 0 0 0 83 2 1 0 0 0 0 4 170 13 2 3 1 0 0 7 25 9 24 28 3 0 0 0 1 32644
-0.018729072 -0.15551558 0.61174476 17 36 121 106 1 0 6 31 53 66 31 35 1 1 4 17 4 15 27 32 6 4 5 14 2 19 36 77 8 1 0 1 63 83 106 25 0 0 0 0 131 131 19 9 2 1 2 19 23 12 30 131 45 15 6 11 0 4 56 131 13 0 0 0 57 50 7 1 0 0 0 1 115 131 131 30 0 0 0 5 7 11 131 131 7 0 0 1 1 0 13 131 5 0 0 0 0 11 7 2 2 13 3 0 0 26 64 6 0 2 2 0 0 1 50 29 0 0 0 1 1 0 3 10 0 0 0 3 1 32644
-0.049002051 -0.15795302 0.62717158 41 15 21 63 32 0 0 0 196 61 3 7 4 0 0 0 83 7 0 1 3 2 0 1 0 0 0 2 1 0 0 0 58 15 16 46 23 29 1 3 196 52 2 4 1 1 1 7 131 5 0 3 5 0 0 1 0 0 0 2 1 0 0 1 44 10 11 15 26 61 12 28 196 20 0 0 1 5 7 67 128 12 1 1 1 0 0 2 1 0 0 1 0 0 0 1 34 71 18 8 1 1 1 8 196 110 1 0 0 0 1 13 117 16 0 0 0 0 1 3 1 0 0 0 0 0 0 1 2 32644
-0.0063911257 -0.14915909 0.60437357 24 64 66 8 2 1 1 5 12 26 69 17 17 10 5 4 22 18 16 9 29 20 22 28 16 14 54 5 5 18 22 21 3 107 142 1 0 0 0 0 18 127 142 5 1 0 0 1 98 142 90 2 2 6 15 20 8 29 73 5 7 30 35 5 0 3 24 2 2 4 2 0 78 43 42 1 1 3 5 10 142 142 70 3 3 5 4 32 18 51 136 27 24 24 4 8 3 2 1 0 0 0 1 1 9 13 1 0 0 1 3 3 12 108 77 1 0 0 0 0 1 63 142 6 0 0 0 0 1 32644
-0.095751658 -0.15733956 0.66174835 0 0 0 18 127 58 1 0 6 2 0 0 48 69 9 10 41 36 1 0 0 3 24 118 50 28 0 0 1 3 11 109 10 1 4 19 55 72 11 19 41 5 0 1 127 118 3 8 127 13 1 0 8 3 6 126 34 5 6 60 11 2 14 119 12 0 1 12 75 10 9 26 36 2 0 23 127 19 1 5 127 87 18 3 14 2 1 12 26 38 45 127 29 4 0 5 0 0 1 22 100 13 9 3 15 0 0 36 127 12 5 14 64 26 4 1 4 1 2 56 8 11 9 13 13 28 13 22 2 32644
-0.075043835 -0.15374996 0.64581305 0 0 1 73 90 34 36 3 61 51 11 19 11 54 55 17 142 111 0 0 0 1 4 15 51 12 0 13 44 6 0 1 1 0 0 4 37 48 94 63 35 0 0 0 40 142 74 26 142 8 0 1 5 17 6 34 82 7 1 29 81 4 0 1 1 0 0 3 9 19 62 63 14 1 0 5 142 133 14 10 142 68 1 0 40 24 3 7 56 40 5 9 42 16 2 0 1 0 3 25 14 3 13 5 1 0 0 18 122 39 5 1 83 30 8 2 32 26 17 35 45 41 25 3 1 2 1 5 1 32644
-0.072520405 -0.15133314 0.64594173 1 0 1 123 29 1 4 14 49 4 4 123 43 0 0 44 59 5 2 3 1 0 9 123 6 3 1 0 0 1 21 24 11 12 20 123 41 0 0 0 123 49 18 48 1 0 0 36 74 49 69 3 0 0 2 26 2 49 50 12 0 1 6 4 19 25 11 82 123 19 15 7 96 123 26 2 0 1 14 33 33 72 76 2 0 0 12 81 8 27 30 21 15 21 25 28 4 6 8 6 46 44 75 25 22 21 5 0 0 1 103 123 23 16 9 23 8 2 36 123 1 0 26 123 34 15 24 24 1 32644
-0.072520405 -0.15133314 0.64594173 0 1 95 115 1 0 4 2 7 4 115 115 0 0 1 19 11 4 30 70 0 0 29 109 11 5 3 2 0 2 41 77 29 15 70 115 30 3 1 3 115 32 42 18 0 0 0 93 61 40 14 1 0 0 13 115 11 23 3 0 0 5 39 20 30 4 2 20 31 56 94 18 115 77 5 0 0 4 58 52 38 110 31 0 0 1 25 30 22 68 45 5 1 2 4 2 19 59 1 0 0 18 87 16 19 19 6 5 0 6 115 92 7 5 27 35 10 23 111 44 2 7 46 32 47 19 7 2 1 32644
-0.09117201 -0.13689981 0.66695637 43 6 2 10 13 14 5 55 2 1 2 26 58 91 21 4 6 1 1 2 4 51 104 55 6 0 0 2 1 6 75 130 55 8 6 48 24 1 0 9 30 7 5 88 65 9 3 6 130 21 11 6 2 3 33 99 15 6 26 35 14 4 38 70 22 42 27 18 15 3 2 3 19 3 2 20 33 27 43 28 94 34 130 130 12 1 11 31 6 53 130 81 4 0 0 1 54 37 20 0 0 0 1 10 13 19 20 27 34 13 13 9 1 2 37 130 130 93 24 3 13 52 94 37 11 21 44 18 2 32644
-0.11246897 -0.13579315 0.68184954 74 47 5 2 8 1 0 0 22 31 21 6 2 1 2 12 54 72 13 2 1 0 4 36 126 126 5 0 0 0 0 3 46 67 7 2 11 1 0 3 126 46 5 1 8 2 2 36 27 34 54 43 85 13 3 30 33 126 124 8 7 2 0 1 46 17 6 4 4 2 2 12 126 23 1 1 9 2 2 40 25 10 11 12 114 126 9 7 20 61 65 8 34 122 4 4 13 1 1 2 5 10 99 102 46 1 1 20 7 2 36 126 6 12 29 25 12 50 11 10 12 6 6 1 21 126 43 16 2 32644
-0.050243594 -0.12366332 0.64205748 13 2 7 39 45 4 6 75 27 5 15 5 0 0 12 139 25 9 22 3 1 0 7 59 7 3 11 10 27 24 11 6 11 0 0 12 19 4 18 139 36 20 51 127 52 1 2 86 139 46 49 19 9 14 25 49 20 4 4 1 23 26 28 23 18 3 4 51 56 2 5 93 83 7 4 116 139 7 8 17 139 34 3 6 23 20 10 37 32 8 1 0 37 39 73 76 9 30 59 60 26 1 1 6 33 2 2 28 38 10 42 62 139 32 0 0 0 2 16 81 48 58 11 0 0 3 19 25 2 32644
