# .PCD v0.7 - Point Cloud Data file format
VERSION 0.7
FIELDS x y z descriptor multiplicity pointId
SIZE 4 4 4 4 4 4
TYPE F F F F I I
COUNT 1 1 1 128 1 1
WIDTH 80
HEIGHT 1
VIEWPOINT 0 0 0 1 0 0 0
POINTS 80
DATA ascii
-0.056183454 -0.097685099 0.6593954 52 12 2 1 0 0 1 25 126 18 1 3 1 1 25 131 21 3 6 47 47 29 23 105 1 2 3 9 66 70 33 9 75 15 5 11 9 6 2 10 131 42 4 12 18 3 1 32 44 19 24 118 128 5 1 10 6 58 77 23 12 13 28 4 38 3 1 1 36 60 29 33 131 60 7 20 20 10 10 62 23 17 11 95 114 57 51 7 1 16 47 25 21 33 21 0 18 10 9 2 16 36 55 55 64 22 4 6 6 8 36 107 16 13 6 89 52 50 46 12 0 0 5 116 50 24 10 0 4 32644
-0.059671182 -0.094145939 0.6626237 69 27 12 0 0 0 0 39 43 50 115 13 0 0 0 12 77 30 43 11 37 41 10 23 3 4 1 7 117 117 5 3 13 8 6 0 1 3 58 43 60 11 18 4 0 14 67 35 117 42 2 1 23 17 9 38 12 7 1 1 117 117 3 4 0 0 13 20 5 15 117 46 15 12 33 12 5 43 84 35 109 22 2 5 7 8 16 93 14 3 1 48 117 71 1 13 0 0 28 107 21 4 4 1 16 80 73 34 4 1 1 2 55 117 16 26 10 0 0 13 2 6 9 117 87 2 1 3 2 32644
-0.037478048 -0.093222581 0.64844054 8 13 124 60 1 0 0 1 124 104 36 11 1 0 1 6 74 51 7 0 1 10 31 27 17 15 3 6 4 7 94 26 9 11 24 8 0 1 8 5 92 124 64 1 1 5 15 6 124 124 51 0 0 0 2 29 60 27 2 5 11 14 27 51 1 2 1 0 0 4 110 38 21 16 11 0 1 34 124 37 124 107 22 0 0 5 22 70 67 124 88 4 22 23 16 39 5 8 5 2 0 1 53 27 4 1 0 0 3 33 59 20 43 43 13 1 3 12 17 32 8 95 67 4 15 11 14 9 3 32644
-0.037478048 -0.093222581 0.64844054 1 1 1 16 51 73 2 0 14 17 2 1 3 21 5 7 46 82 9 0 0 0 14 95 35 34 18 5 2 10 29 75 4 1 0 0 21 105 9 3 48 11 1 1 59 98 15 19 125 20 0 1 2 3 22 125 33 1 0 2 15 26 38 107 1 0 1 12 58 42 11 4 40 3 0 0 38 51 105 125 124 6 0 0 1 12 125 125 42 4 7 1 5 27 27 64 15 2 2 17 34 17 25 42 125 26 0 3 6 17 31 66 125 25 7 42 23 29 68 63 4 15 46 37 18 20 14 12 1 32644
-0.10558499 -0.095114097 0.69472528 116 6 27 48 4 0 0 68 131 3 6 2 0 1 6 118 5 3 11 12 31 6 26 12 9 1 1 42 127 2 1 2 131 2 2 3 3 2 0 82 131 6 15 21 8 1 0 46 7 20 27 31 54 1 0 2 26 1 1 56 131 0 0 1 131 45 0 0 3 3 1 13 126 35 1 5 10 16 14 7 8 3 1 7 78 18 16 13 28 0 0 13 131 29 5 11 118 80 0 0 1 3 4 3 99 131 3 1 0 2 7 2 3 19 10 32 53 12 9 1 11 3 2 13 49 32 15 23 4 32644
0.0017330591 -0.088264897 0.62495679 2 8 1 1 5 1 0 0 88 2 0 0 16 2 0 3 211 9 0 0 0 0 0 8 78 1 0 2 24 1 0 4 8 19 1 1 2 0 0 1 118 2 1 1 11 2 0 7 211 1 0 0 0 0 0 19 94 0 0 3 40 0 0 7 8 2 0 0 1 3 8 21 117 1 0 0 6 8 3 9 211 5 0 0 0 0 0 9 95 1 0 3 51 0 0 2 0 0 0 1 9 4 8 13 96 0 0 1 13 3 1 8 211 1 0 0 0 0 0 26 69 0 0 6 49 0 0 5 2 32644
-0.081862457 -0.087556861 0.67980438 0 0 4 47 28 20 96 73 1 1 4 12 16 81 115 20 8 6 2 1 5 26 115 34 1 0 0 1 37 60 30 3 2 7 90 41 15 9 32 69 9 18 37 115 85 35 22 8 111 67 19 19 31 22 27 19 10 2 1 3 115 77 7 2 46 47 115 66 2 1 22 41 52 16 27 45 34 59 77 65 112 32 18 11 23 33 31 37 12 10 18 11 72 86 5 1 27 3 2 7 2 2 115 92 36 0 0 65 63 12 22 68 3 30 37 54 45 7 4 1 0 26 49 11 7 4 0 0 4 32644
0.0046224995 -0.08481466 0.62458688 0 2 1 2 5 1 1 0 107 5 0 3 18 1 0 0 199 16 0 0 0 0 0 1 37 1 0 5 42 1 0 1 3 10 2 1 5 1 0 0 130 2 0 1 21 3 0 3 199 8 0 0 0 0 0 7 52 0 0 12 80 2 0 3 7 22 1 1 3 1 0 1 132 3 1 1 13 2 0 9 199 1 0 0 0 0 0 27 48 0 0 10 119 1 0 5 7 3 0 0 2 3 6 14 112 0 0 0 4 5 2 9 199 1 0 0 1 0 0 12 35 0 0 7 109 1 0 2 1 32644
0.089012928 -0.091119409 0.65026307 21 0 0 6 138 1 0 2 138 0 0 0 11 1 0 16 44 3 1 1 1 1 0 6 17 3 7 3 1 0 0 5 31 0 0 11 138 1 0 4 138 5 3 7 10 0 0 21 32 7 54 67 1 0 0 4 4 4 136 74 0 0 2 2 35 0 0 7 138 1 0 3 138 11 3 17 18 8 4 14 8 4 35 116 36 37 54 13 0 0 49 50 2 2 105 67 32 0 0 10 138 0 0 2 138 0 0 0 7 7 11 34 16 0 0 1 6 32 116 26 0 0 0 0 0 1 88 46 2 32644
-0.07893315 -0.083838791 0.68046993 18 0 2 12 28 24 39 83 7 24 21 46 107 27 21 8 63 105 17 7 9 27 7 9 7 10 5 5 15 111 23 1 16 9 88 119 23 1 1 18 59 26 43 61 68 20 59 37 51 31 17 9 34 36 78 37 5 16 77 31 15 9 1 0 18 13 40 119 70 3 26 68 119 38 20 6 6 4 30 119 39 3 3 18 119 34 11 18 1 6 27 15 53 8 10 11 19 1 1 13 26 2 34 119 13 4 3 15 18 2 47 119 10 0 0 65 119 3 4 35 12 0 0 6 23 33 39 80 3 32644
-0.097114787 -0.071379907 0.69752318 28 26 10 1 16 26 16 13 19 2 8 40 31 15 28 48 56 5 8 45 49 1 0 5 22 1 3 58 122 3 3 17 4 103 122 15 15 8 3 1 15 33 122 122 7 1 5 3 122 30 36 58 47 0 0 10 57 1 0 22 122 6 1 38 0 11 41 6 21 122 39 2 45 15 76 22 1 45 42 15 122 73 43 34 30 1 3 17 82 26 22 63 84 1 0 6 9 0 7 7 4 122 42 9 3 3 4 3 9 122 39 2 9 35 57 19 11 66 9 1 58 43 33 35 4 4 4 1 3 32644
-0.051558044 -0.070534907 0.66533655 0 0 0 0 12 9 2 0 98 2 0 0 68 15 0 3 160 16 0 0 37 3 0 2 74 2 0 1 97 10 2 6 0 0 0 0 7 27 48 0 93 2 0 0 54 62 21 9 160 31 0 0 36 7 4 10 103 5 0 0 114 15 0 2 0 2 33 3 0 29 107 0 28 6 17 4 9 118 89 16 160 58 1 3 21 21 19 26 86 15 0 0 72 32 7 14 1 13 87 26 7 2 2 1 7 45 72 18 7 11 4 2 123 105 8 15 6 5 2 1 60 75 3 0 5 17 21 15 3 32644
-0.06789206 -0.062245041 0.68288761 90 85 1 3 15 2 0 0 79 127 41 27 0 0 1 9 3 2 14 64 2 0 15 72 0 0 8 38 1 0 18 70 70 39 1 0 46 42 1 1 127 77 10 3 0 0 1 50 27 8 30 79 0 0 7 87 1 0 24 92 0 0 7 57 42 16 0 16 114 33 1 1 127 127 19 3 3 1 0 11 38 33 40 51 0 0 14 90 0 0 16 82 0 0 17 97 8 4 4 29 39 7 0 1 127 53 3 0 5 3 0 16 90 29 47 85 0 0 4 56 0 0 50 127 0 0 2 10 4 32644
-0.089357279 -0.05172424 0.70122617 64 115 9 14 28 2 0 0 21 25 12 36 95 29 0 2 129 7 3 9 52 6 0 10 22 3 0 7 129 15 14 29 29 119 28 6 44 4 1 1 42 64 109 65 22 3 0 1 129 19 10 11 66 4 0 11 29 39 4 8 129 8 0 7 2 7 8 8 31 5 2 1 110 12 28 13 16 1 0 6 129 6 2 8 64 3 0 28 16 11 2 31 129 9 0 1 1 18 6 6 7 0 0 0 117 2 1 7 19 0 0 13 129 2 0 15 71 3 0 23 17 4 1 54 129 17 4 4 1 32644
-0.10313667 -0.046386123 0.71531576 30 122 14 5 19 13 2 7 39 122 3 0 1 42 8 4 6 19 0 0 5 122 10 1 3 89 3 0 0 26 12 1 32 35 6 4 41 122 20 14 122 98 6 0 0 10 9 29 43 23 39 1 1 63 21 5 2 13 8 0 5 102 26 0 6 39 5 0 2 122 24 5 58 62 49 3 2 102 20 10 8 75 122 8 3 15 2 0 0 122 55 1 6 29 0 0 1 98 13 1 4 27 6 0 1 58 10 2 2 122 23 0 0 16 25 4 10 122 23 0 1 122 28 2 13 25 1 0 4 32644
-0.10313667 -0.046386123 0.71531576 24 1 2 26 10 0 1 89 8 0 2 121 48 7 9 26 13 5 31 120 23 11 37 59 23 3 9 7 4 13 31 121 18 1 2 111 37 0 0 59 48 4 2 91 36 9 64 66 9 0 0 7 8 15 121 121 7 0 0 56 14 4 22 121 19 5 5 121 46 0 0 11 121 22 3 18 5 0 6 56 51 3 1 56 30 3 36 23 2 0 1 116 25 1 4 20 37 3 14 51 4 0 0 82 89 1 2 21 1 0 0 121 15 1 3 97 31 0 1 13 11 0 0 24 19 1 2 81 4 32644
-0.088357657 -0.043812416 0.70446092 49 2 0 5 23 1 2 14 14 0 3 21 13 15 12 8 15 9 6 20 24 11 6 8 6 2 2 71 112 9 3 3 87 61 10 34 26 0 0 3 28 15 21 118 54 7 1 3 94 38 28 57 58 1 0 4 23 5 4 106 118 10 10 15 88 118 14 27 67 1 0 0 45 58 31 55 118 30 0 4 118 8 4 18 98 7 0 20 35 11 0 15 118 19 29 68 18 62 17 9 61 4 1 1 62 53 88 41 10 0 0 4 118 11 7 9 86 3 0 20 37 58 4 10 118 3 0 7 3 32644
-0.057387915 -0.043022368 0.68211651 0 1 2 4 0 0 0 0 8 0 0 4 5 0 0 11 35 2 0 2 2 1 27 123 33 14 2 1 2 2 50 123 2 3 1 1 1 0 1 2 62 3 1 4 7 1 2 24 123 69 13 0 0 0 6 123 21 33 66 4 11 14 17 47 4 3 21 8 1 1 3 3 102 8 6 2 2 1 17 118 90 56 18 0 0 21 123 121 2 33 116 3 1 36 82 5 3 2 19 7 0 3 123 27 123 6 7 1 0 0 115 123 93 3 9 1 0 14 52 68 2 2 23 3 0 26 103 8 1 32644
-0.093987614 -0.032968134 0.71428567 6 0 3 13 14 1 2 18 3 1 3 14 66 45 34 10 21 31 12 2 8 48 127 10 6 35 130 18 11 56 42 1 12 11 41 108 4 0 1 4 130 28 22 20 3 5 33 85 24 6 3 1 0 39 130 67 0 0 6 5 3 130 130 1 29 11 12 84 26 4 27 65 130 43 4 3 0 0 32 130 53 40 17 3 1 2 26 39 0 1 28 32 15 30 35 2 40 1 2 6 2 1 41 130 11 1 2 1 5 7 83 130 12 2 1 0 3 6 23 33 9 2 2 2 7 52 23 11 3 32644
0.022661284 -0.036941376 0.63456023 0 0 2 5 6 0 0 0 80 11 1 7 22 2 0 4 209 37 0 0 0 0 0 3 85 8 0 0 0 0 0 0 0 0 2 4 7 0 0 0 97 9 0 7 26 2 0 4 209 32 0 0 0 0 0 6 125 7 0 0 0 0 0 1 0 0 4 5 7 0 0 0 100 5 0 7 26 1 0 7 209 11 0 0 0 0 0 16 128 0 0 0 0 0 0 6 0 1 3 5 6 0 0 0 77 12 2 14 20 0 0 2 209 21 0 0 0 0 0 7 101 1 0 0 1 0 0 3 1 32644
-0.052227776 -0.028925769 0.68319851 20 83 108 1 0 0 64 26 23 80 42 0 0 6 84 24 11 13 12 2 8 73 26 9 1 51 42 3 6 34 2 1 48 91 133 8 2 11 20 10 133 132 33 0 0 1 3 17 69 11 5 14 6 65 10 5 0 8 14 5 9 133 5 0 33 3 3 1 1 82 133 44 133 22 1 0 0 4 72 98 52 34 18 19 16 5 1 3 12 15 10 5 7 42 5 7 19 74 33 0 0 25 81 4 19 11 2 5 19 28 73 24 5 31 82 42 31 7 2 2 5 47 119 7 1 2 2 6 4 32644
-0.063851438 -0.024548454 0.69370586 31 7 1 19 53 1 0 4 142 49 0 1 3 0 0 39 74 34 7 12 0 0 3 39 1 4 18 107 8 0 3 8 31 7 1 14 55 1 0 4 142 50 1 1 4 0 0 33 110 24 10 65 10 1 5 13 0 0 2 82 17 3 38 56 22 10 0 5 54 2 0 2 142 142 2 2 5 0 0 11 113 63 12 16 5 1 9 39 8 13 37 7 4 2 28 73 4 3 0 11 41 1 0 1 142 44 1 2 9 0 1 51 142 15 18 82 27 0 0 43 3 45 142 88 16 0 0 1 4 32644
-0.070210487 -0.021645356 0.70036197 0 0 1 39 61 0 0 0 100 21 1 24 70 1 0 14 155 53 5 1 0 0 3 90 17 10 8 6 0 0 19 91 0 0 3 64 55 0 0 0 128 32 2 24 63 1 0 11 155 88 1 1 0 0 0 39 44 26 14 68 3 0 1 10 0 0 0 16 82 2 0 0 125 17 0 8 59 2 1 17 155 77 5 7 1 0 0 40 32 15 8 61 15 2 21 33 0 0 0 8 71 4 0 0 47 35 0 9 48 1 0 2 155 131 1 2 1 0 0 27 68 18 33 30 3 0 6 39 2 32644
0.027704425 -0.025546776 0.63873333 0 1 2 5 7 0 0 0 68 5 1 7 28 2 0 4 210 17 0 0 1 0 0 5 103 3 0 1 0 0 0 1 0 0 6 11 6 0 0 0 78 15 2 21 31 1 0 2 210 31 1 1 1 0 0 11 131 2 0 1 0 0 0 3 0 0 6 11 7 0 0 0 96 2 0 14 36 2 0 15 210 5 0 0 1 0 0 35 121 2 0 0 0 0 0 2 0 0 5 8 4 0 0 0 89 6 0 9 17 0 0 3 210 10 0 0 0 0 0 13 88 1 0 0 0 0 0 4 4 32644
-0.074654743 -0.0078422846 0.70838064 10 5 0 0 5 127 58 10 119 87 0 0 1 105 36 17 127 66 1 0 0 4 6 11 30 4 0 0 0 15 16 12 48 70 3 4 15 120 36 6 52 6 1 6 86 127 47 20 127 37 0 0 4 9 7 28 63 5 0 0 0 4 25 26 78 127 18 11 12 3 1 2 19 17 11 17 70 47 77 26 114 3 0 0 3 9 66 103 80 2 0 3 2 1 3 23 97 115 1 0 0 0 0 2 67 75 1 0 0 1 19 20 23 21 3 0 0 1 19 20 38 19 0 2 3 2 1 4 1 32644
-0.10883372 0.011650207 0.74411058 30 9 2 0 0 0 0 15 98 108 1 0 0 0 0 7 164 164 0 0 0 0 0 1 86 24 0 0 0 0 0 1 46 6 0 0 0 0 1 11 89 31 0 0 2 1 1 9 164 41 0 0 0 0 0 7 141 12 0 0 0 0 0 2 33 22 2 0 0 0 0 4 103 23 3 0 2 1 1 22 164 7 0 0 0 0 0 48 130 5 0 0 0 0 2 24 5 5 2 1 1 1 3 6 127 20 3 1 0 0 0 11 164 19 0 0 0 0 0 15 116 3 0 0 0 0 3 22 1 32644
-0.044851657 0.014181592 0.69887656 13 2 2 5 9 7 13 19 1 1 11 52 81 20 5 3 16 1 19 77 39 2 1 30 58 12 5 8 5 3 12 59 18 3 9 53 22 4 6 14 6 4 38 120 71 6 1 0 120 16 20 50 29 1 1 64 57 8 7 31 45 9 18 76 2 1 2 90 120 12 7 8 24 7 10 120 117 2 7 7 120 85 44 12 2 2 13 18 25 33 120 119 26 3 1 3 3 1 19 120 73 1 0 2 30 1 0 39 44 3 34 98 14 13 12 3 16 42 120 72 2 2 31 40 72 58 17 3 4 32644
-0.044851657 0.014181592 0.69887656 2 5 4 33 111 82 1 0 80 92 3 14 49 18 0 1 92 121 11 4 5 2 0 2 7 21 9 14 29 10 1 0 4 20 48 117 53 12 19 18 42 39 2 25 34 74 38 11 121 102 1 0 0 6 3 19 46 16 5 6 13 20 4 8 99 18 15 6 1 15 35 121 18 2 0 0 29 121 63 38 121 89 8 0 14 43 9 24 42 70 25 7 5 2 1 7 121 119 3 1 3 5 3 20 15 33 9 19 91 62 5 5 45 21 1 2 60 39 2 10 77 29 8 11 0 0 1 16 1 32644
0.090120025 0.0076167253 0.68639416 8 0 6 134 151 3 0 2 151 0 0 13 50 1 1 42 63 0 0 3 7 25 8 21 0 0 0 3 10 20 4 0 14 0 1 20 151 18 0 3 151 8 2 3 39 5 0 35 70 7 9 67 8 4 1 8 3 4 19 41 9 3 2 5 14 3 0 6 151 61 4 1 151 63 8 5 41 1 1 19 26 24 20 54 1 1 16 33 3 1 6 15 0 0 34 69 14 1 0 39 151 16 1 7 121 7 0 3 30 1 4 100 16 2 1 1 0 0 37 73 2 1 0 4 1 0 11 33 2 32644
-0.10934172 0.038396787 0.7560156 144 66 5 7 5 0 0 0 26 18 11 61 77 1 0 2 144 31 4 8 8 0 0 17 76 2 0 0 58 20 2 18 144 26 9 13 9 6 2 26 36 34 32 110 70 31 8 12 144 88 13 9 4 2 4 41 107 23 23 12 37 17 1 11 120 11 0 1 5 12 5 41 31 13 1 7 33 91 83 77 144 27 20 2 2 7 35 144 37 22 75 19 2 0 0 6 59 19 0 0 0 0 3 18 36 45 0 0 0 1 27 33 37 33 12 0 0 0 6 35 26 4 10 1 0 0 0 19 1 32644
-0.0066875624 0.051436733 0.69018763 7 5 5 4 10 6 0 0 136 1 1 1 5 9 2 18 201 3 0 0 0 0 0 15 45 1 0 0 0 1 1 4 8 15 10 2 0 0 0 2 166 16 1 1 0 0 1 7 201 29 0 0 0 0 0 2 65 4 0 0 0 1 1 1 21 1 0 0 0 0 0 12 148 6 0 0 0 0 1 12 201 31 0 0 0 0 0 2 78 9 0 0 0 0 0 1 9 0 0 0 0 2 12 20 98 3 0 0 0 2 4 10 201 14 0 0 0 0 0 2 78 3 0 0 0 0 0 1 2 32644
-0.059578627 -0.21143886 0.6156863 37 6 0 3 72 6 0 0 164 99 11 2 2 0 0 1 42 37 91 40 4 2 3 1 0 0 101 31 2 2 5 0 28 5 0 3 108 29 0 0 164 45 4 1 4 2 4 21 69 12 27 13 5 32 46 20 0 0 23 8 1 18 61 0 19 1 0 0 129 92 0 1 164 27 0 0 9 10 0 5 124 7 0 0 26 13 5 4 0 0 0 0 17 10 6 0 7 0 0 0 144 68 0 1 164 19 0 0 22 11 0 2 117 8 0 1 25 2 0 0 0 0 0 2 18 1 0 0 4 32644
0.038817272 -0.17779224 0.57121813 3 0 0 0 32 9 1 7 21 0 0 0 0 1 38 131 2 0 0 0 0 13 131 95 0 0 0 0 9 116 131 1 27 2 0 0 27 19 2 14 131 42 2 0 0 1 8 131 38 23 17 8 6 13 68 89 0 4 8 57 101 81 39 1 13 9 0 0 40 9 0 1 94 131 41 0 2 0 0 4 16 118 131 32 4 5 2 3 0 1 104 131 32 2 0 0 0 1 0 1 43 3 0 0 26 26 9 0 5 1 1 31 22 19 53 6 13 32 37 58 2 0 29 30 33 38 7 5 1 32644
0.038817272 -0.17779224 0.57121813 0 0 0 36 10 1 4 5 0 0 0 27 15 2 23 26 0 0 0 3 3 19 106 25 0 0 0 0 4 50 28 0 15 1 1 40 3 0 0 7 109 5 0 3 2 1 42 128 18 2 0 1 3 62 128 116 0 0 0 0 31 128 61 0 25 4 1 9 1 1 20 17 128 128 3 0 0 2 10 37 46 106 39 12 9 10 12 16 4 4 22 64 115 89 3 0 1 0 1 9 7 13 96 52 15 83 15 21 44 33 28 7 4 128 128 16 3 0 0 0 5 5 97 108 18 0 6 13 3 32644
0.037799351 -0.17295749 0.57297164 0 0 3 6 21 91 34 0 52 0 0 2 11 18 9 111 31 1 2 6 2 20 106 121 0 0 1 3 17 121 79 3 9 9 65 81 37 21 3 1 121 16 3 23 17 4 0 66 105 15 13 37 6 4 6 55 14 4 5 21 93 43 4 12 11 8 29 19 1 13 3 0 121 121 8 4 0 0 0 2 44 121 69 9 4 2 5 14 5 9 52 121 76 1 2 17 1 1 0 6 28 49 8 6 5 54 8 0 1 5 43 31 1 91 116 8 1 26 34 3 0 7 101 89 6 10 1 0 4 32644
-0.018017977 -0.17678048 0.6006487 47 41 0 0 0 1 0 0 126 100 4 6 12 12 4 11 34 24 4 7 33 61 14 17 13 14 4 9 88 54 10 15 51 6 0 0 3 4 1 4 126 34 6 5 11 5 2 39 82 21 15 40 111 24 5 20 59 20 12 22 108 40 7 15 25 10 3 1 1 1 2 3 124 126 89 21 2 0 0 3 19 68 126 125 22 0 2 2 14 63 126 80 29 0 6 4 0 2 4 3 2 2 19 7 1 16 31 4 0 0 55 32 0 6 36 12 0 0 113 61 0 5 23 5 0 0 126 81 4 32644
0.00677488 -0.17082256 0.59012258 23 2 0 4 86 20 0 4 138 9 0 0 7 4 1 34 62 6 3 6 81 32 4 21 40 13 9 25 74 3 1 14 27 4 0 4 118 75 2 5 138 27 1 4 14 4 1 32 82 15 6 47 138 5 0 9 43 18 11 26 70 33 9 18 26 4 0 53 138 35 1 3 138 48 2 7 16 4 1 23 79 15 2 24 115 40 6 16 108 4 0 5 86 26 8 22 22 2 11 67 48 0 0 0 138 10 0 2 4 2 1 18 69 6 1 13 69 30 5 17 43 13 3 24 71 6 2 13 4 32644
0.010294407 -0.17085248 0.58994704 41 6 0 8 71 10 0 1 135 16 0 0 14 11 2 11 75 1 0 1 66 48 4 18 72 2 0 5 122 9 0 10 44 3 0 4 91 24 0 5 135 13 0 1 16 8 1 37 66 11 5 9 95 40 5 23 40 13 10 37 126 3 1 12 38 6 0 4 104 68 1 5 135 31 1 6 22 3 1 26 68 17 7 42 135 4 1 9 40 14 9 23 85 46 9 16 26 4 0 37 118 26 1 3 135 41 1 5 15 4 1 15 62 10 1 14 83 36 6 14 72 3 0 5 86 21 5 14 4 32644
0.011987197 -0.1642857 0.59027874 84 40 0 0 42 8 0 0 122 98 9 10 50 7 0 0 96 9 4 10 74 13 2 11 61 2 0 3 123 28 1 8 68 14 0 1 74 13 1 8 128 49 4 5 11 10 11 48 81 17 4 10 36 35 26 27 64 20 2 10 128 23 1 6 63 10 0 1 73 35 0 3 128 29 0 2 22 4 2 16 61 29 3 21 122 11 2 4 53 44 3 10 106 7 0 0 29 12 1 11 110 18 0 0 128 59 0 1 19 2 0 1 47 27 2 10 128 11 0 1 47 52 4 8 46 10 1 2 4 32644
0.040590692 -0.16087767 0.57556158 5 1 67 109 18 0 9 26 1 0 3 33 23 11 109 44 1 1 2 1 2 74 77 2 0 0 0 2 11 33 3 0 95 11 15 13 3 3 9 67 30 21 37 97 29 24 57 57 83 49 28 16 19 109 53 22 5 0 0 2 76 109 6 2 61 83 1 4 25 39 7 3 35 109 24 21 25 58 92 19 84 16 42 69 33 22 71 77 8 0 5 91 109 28 1 3 2 24 3 8 49 54 12 8 4 109 78 4 16 8 6 1 0 16 109 94 3 1 6 3 0 0 12 74 13 0 0 0 3 32644
0.017463911 -0.16252583 0.58746904 23 0 0 7 85 10 0 6 139 5 0 1 4 2 3 54 50 8 2 15 38 26 15 27 59 19 2 13 53 4 2 9 35 5 1 12 118 29 1 0 139 12 0 2 15 1 0 16 74 14 2 31 133 2 0 7 71 37 3 16 68 0 0 0 33 5 1 29 135 6 0 1 139 26 0 3 19 1 0 2 74 18 3 24 139 3 0 1 77 43 4 11 50 9 1 10 20 2 0 1 107 12 0 2 139 54 3 2 11 1 0 2 56 25 7 14 139 7 0 3 102 9 3 8 40 7 1 18 1 32644
-0.080524027 -0.16725111 0.64506721 2 9 16 20 43 31 8 3 6 39 69 43 65 77 6 6 71 107 86 14 5 17 24 62 6 3 56 43 4 8 109 58 1 26 121 20 19 21 10 5 20 12 84 39 25 72 29 16 121 17 7 5 5 17 23 105 39 2 24 35 35 17 36 49 3 5 20 1 6 102 74 48 16 5 20 7 2 64 121 38 121 68 29 15 5 25 27 21 25 27 94 121 28 15 3 3 2 1 1 0 4 121 24 7 2 2 12 20 13 72 13 5 13 14 20 43 16 22 10 6 4 6 30 63 21 46 57 8 2 32644
-0.098517008 -0.15698715 0.66219246 12 12 24 12 44 5 0 1 5 60 14 16 62 45 10 0 19 127 14 7 3 13 4 0 40 58 19 10 6 2 1 3 15 58 87 6 5 2 5 5 89 33 11 3 11 88 62 34 12 97 21 2 41 127 34 6 17 127 93 5 14 8 0 1 17 12 3 0 0 4 127 52 127 18 2 3 12 18 53 75 30 3 5 9 127 127 8 6 0 55 44 12 79 99 20 0 10 14 2 1 9 20 78 33 21 9 4 5 7 26 48 28 4 2 10 28 65 59 6 1 0 3 9 6 13 127 53 0 4 32644
-0.053271513 -0.14542638 0.63391817 37 20 10 26 7 3 19 82 2 5 64 83 60 6 3 5 13 13 110 34 14 3 5 6 128 10 14 6 4 1 1 82 5 20 75 132 10 1 8 24 53 26 64 97 22 4 6 5 49 10 9 26 11 9 28 20 132 7 2 2 0 0 2 98 6 8 20 54 29 8 2 3 99 21 4 12 9 4 3 16 93 11 8 38 18 14 11 70 132 4 2 2 0 0 1 132 2 0 0 1 14 51 25 5 54 9 14 3 4 13 5 38 132 11 15 3 2 12 11 83 132 0 0 0 0 0 0 99 4 32644
-0.066158377 -0.14613736 0.64418036 47 75 24 7 39 9 0 2 14 27 42 72 42 17 4 4 4 4 4 65 85 70 10 6 12 45 12 9 18 10 5 17 10 68 68 24 122 52 3 4 122 97 70 11 36 13 6 21 30 19 16 56 122 49 6 5 6 73 40 14 26 13 3 3 13 33 9 16 107 122 32 21 122 29 86 61 25 26 24 60 13 7 68 100 122 31 2 1 6 23 6 3 21 28 25 8 14 100 26 60 66 26 4 4 1 2 43 79 51 21 2 1 16 5 38 20 3 2 3 22 11 0 1 1 1 4 38 65 1 32644
-0.12204164 -0.15228485 0.67907256 22 4 5 2 20 42 42 54 181 2 0 0 4 13 18 126 136 2 1 1 1 0 0 18 0 0 1 1 1 0 0 0 36 5 1 8 36 24 18 43 181 11 0 2 10 8 3 39 149 4 2 2 0 0 0 6 0 1 5 2 0 0 0 0 36 25 11 25 46 3 1 7 181 34 2 6 11 2 1 32 145 7 0 1 2 0 0 4 1 1 1 1 1 0 0 0 27 97 57 4 7 1 1 5 181 56 5 1 2 1 1 28 113 3 0 1 2 0 0 4 0 1 1 1 1 0 0 0 2 32644
-0.044469148 -0.13471343 0.63386548 31 9 1 6 11 14 5 6 80 14 7 6 5 10 13 30 194 4 1 1 1 3 5 52 48 0 1 6 15 0 0 5 13 3 3 8 29 59 26 10 101 41 60 43 15 4 2 9 194 47 12 4 0 0 0 13 52 0 0 9 43 1 0 4 1 1 4 63 85 13 4 2 126 7 7 28 53 24 14 22 194 8 1 1 1 1 2 36 49 0 0 12 69 0 0 3 22 3 5 43 61 3 4 21 84 13 4 17 6 20 29 40 194 30 1 1 0 1 4 37 34 1 0 10 77 0 0 1 1 32644
-0.083166718 -0.13751009 0.65950584 10 14 14 74 35 0 0 3 75 39 10 2 1 0 2 36 32 6 21 13 3 1 28 62 6 4 32 75 23 1 13 18 49 4 5 29 7 2 1 11 119 11 5 1 1 2 1 64 26 13 33 22 10 15 30 32 2 1 12 28 36 75 59 17 26 3 1 3 2 30 84 72 71 11 25 35 72 28 44 107 67 119 80 43 46 10 16 20 38 86 22 5 3 68 57 17 110 48 32 36 9 17 34 51 67 7 2 8 119 93 30 53 119 80 10 12 119 52 2 4 110 65 22 16 7 6 2 1 3 32644
-0.10120159 -0.13721697 0.67365336 0 19 107 55 12 6 2 0 4 21 33 45 21 20 61 44 13 15 6 6 20 30 54 76 14 55 46 11 19 27 6 8 0 12 117 40 1 3 3 0 35 108 117 6 0 1 5 10 117 107 12 0 12 54 6 15 11 5 5 13 26 107 27 13 0 1 18 11 5 115 95 3 61 16 12 3 0 17 64 72 117 60 10 16 14 7 3 55 11 6 18 117 100 18 2 4 3 39 46 13 15 73 42 2 9 13 2 1 7 67 75 15 35 76 17 18 15 22 7 12 3 11 12 95 106 43 28 16 3 32644
-0.057985853 -0.11177106 0.65295297 2 1 1 3 2 59 46 11 53 14 7 3 1 33 49 80 29 30 77 36 11 56 82 40 47 32 27 15 17 42 34 21 14 15 58 95 4 8 5 2 114 49 30 11 1 5 13 111 32 15 42 7 3 56 114 90 6 1 10 15 43 107 68 11 29 7 38 72 1 1 13 98 114 67 76 16 11 3 1 81 72 106 114 14 5 4 3 11 48 29 35 7 9 28 23 31 7 1 0 1 5 15 65 77 12 4 6 12 27 20 5 29 80 62 39 11 10 11 4 11 33 59 114 12 0 0 0 7 3 32644
-0.032858968 -0.10897417 0.63740051 49 10 20 6 2 17 29 48 5 10 21 3 7 61 108 14 35 1 0 0 55 39 51 30 121 0 0 0 4 2 1 93 19 24 121 20 0 1 4 10 120 69 63 4 8 13 4 6 67 4 1 0 54 73 22 75 121 0 0 1 4 3 5 121 53 11 45 8 0 0 0 14 121 40 28 3 1 2 0 17 121 41 39 3 3 13 8 53 121 1 0 10 12 0 2 72 63 0 0 0 0 0 4 26 99 10 9 3 1 2 12 50 121 12 10 2 1 1 8 121 69 0 0 23 36 0 0 32 3 32644
-0.096607506 -0.10737046 0.6836707 1 1 5 143 143 73 23 5 2 6 61 120 82 7 1 3 1 3 37 36 38 5 1 1 0 0 14 35 45 8 0 0 13 5 42 143 91 1 0 3 75 17 39 91 24 12 13 61 5 4 42 42 81 53 11 12 0 0 65 92 31 15 0 0 32 8 56 132 0 0 4 53 104 46 61 11 5 3 1 25 19 26 47 19 59 81 10 4 4 3 8 14 27 143 88 4 3 3 7 4 19 23 16 25 21 24 40 4 3 2 0 3 41 53 22 1 0 4 3 2 21 74 7 0 0 26 61 8 1 32644
-0.096607506 -0.10737046 0.6836707 10 142 97 7 14 10 0 0 7 43 12 9 55 48 6 0 0 0 0 9 47 30 20 0 25 5 1 1 7 8 9 7 58 74 12 1 0 5 61 35 128 68 4 5 16 18 32 28 8 2 2 38 74 61 59 6 3 2 23 54 20 13 29 8 26 1 0 0 0 6 93 54 79 20 18 19 5 18 57 29 8 7 20 90 71 18 54 93 0 0 4 20 17 7 142 142 32 1 0 0 0 1 19 41 27 0 1 2 1 18 59 46 65 13 2 6 2 12 96 142 38 19 15 6 7 3 81 142 2 32644
-0.054064501 -0.10232327 0.65584844 86 7 2 3 2 0 1 17 113 24 4 1 1 1 1 14 125 24 2 10 9 0 2 44 20 7 15 72 46 10 4 14 28 0 0 0 1 6 99 125 77 5 1 1 9 62 43 54 125 45 5 22 23 10 7 37 14 12 18 73 86 41 12 3 13 17 44 38 35 15 81 68 33 14 14 2 11 63 86 86 95 21 5 9 9 15 45 125 8 6 3 81 74 67 23 9 42 25 25 35 64 13 11 59 68 23 5 16 25 4 19 106 7 38 52 61 42 3 10 10 1 16 29 95 81 1 0 0 3 32644
-0.11455514 -0.095208995 0.69872624 106 13 4 4 9 8 26 48 28 4 1 20 140 10 16 13 140 9 0 6 26 0 0 1 41 0 0 1 2 0 0 1 140 13 17 10 12 2 3 25 39 5 8 35 140 15 3 3 140 13 0 5 31 3 1 7 50 1 0 1 0 0 0 0 124 122 6 4 8 6 10 5 22 10 8 22 126 64 16 21 140 3 1 1 14 16 10 80 40 1 1 1 0 0 0 4 49 140 24 6 2 3 2 3 48 60 59 52 14 3 1 5 140 19 3 2 1 1 1 28 15 0 0 0 0 0 0 3 3 32644
-0.076108895 -0.089855798 0.6750524 14 46 12 9 6 8 2 1 10 12 0 2 8 48 58 6 36 32 6 0 1 47 36 24 24 49 64 10 0 1 18 99 19 70 44 13 3 0 0 0 119 82 6 3 5 27 32 25 31 20 12 24 26 88 53 66 30 27 67 79 6 1 15 119 46 16 24 11 1 1 2 16 119 55 9 14 31 3 1 40 42 41 32 77 118 26 20 47 18 39 46 77 30 58 89 62 31 20 1 1 1 1 2 6 75 111 92 10 7 1 0 7 26 119 115 8 23 15 16 42 27 54 92 14 1 19 54 56 3 32644
-0.036331005 -0.087363981 0.65070653 0 0 0 0 25 96 8 1 52 0 0 0 7 42 34 111 79 0 0 0 3 13 21 124 2 15 14 15 74 78 14 14 5 0 0 5 70 39 25 25 92 4 1 2 2 10 71 124 29 5 14 21 7 14 65 124 1 10 17 5 56 124 14 8 10 11 43 15 18 6 14 13 124 94 36 28 0 0 4 27 22 31 120 124 5 3 4 7 5 77 124 31 10 21 1 1 4 14 45 16 7 16 11 3 31 89 43 27 1 3 17 15 3 10 37 122 8 10 33 11 25 27 26 14 1 1 19 58 3 32644
-0.0076620341 -0.079496838 0.63492286 1 16 47 36 14 14 4 0 70 46 18 2 2 13 28 25 161 39 1 0 3 0 2 18 29 2 0 0 152 18 0 0 1 6 6 5 4 79 46 1 94 45 15 3 3 34 24 9 161 56 1 0 2 1 2 10 47 4 0 0 161 17 0 0 0 26 38 1 0 57 34 0 56 9 15 3 2 75 63 33 161 14 1 0 1 3 10 57 51 2 0 0 127 19 0 1 0 50 50 0 0 0 0 0 38 43 69 7 1 3 2 2 161 58 5 0 0 0 0 4 42 2 0 0 67 14 0 0 1 32644
-0.046256118 -0.077845596 0.65950602 0 0 38 30 43 105 4 0 41 6 7 15 31 58 8 20 127 11 0 1 45 4 1 25 4 0 0 2 127 7 0 0 0 1 85 64 34 20 1 0 42 40 57 53 21 12 2 7 127 70 5 8 49 0 0 8 6 3 2 42 127 0 0 0 2 2 1 20 67 26 2 2 42 6 3 7 20 24 23 43 127 27 6 30 34 4 15 47 4 2 5 90 115 28 96 10 2 0 0 15 48 10 12 11 10 1 0 1 2 2 48 127 18 8 2 5 6 5 127 127 0 0 13 11 10 17 127 70 3 32644
-0.048117246 -0.074220769 0.66209865 2 2 64 67 0 0 24 46 10 11 87 135 5 2 4 15 0 1 12 135 42 8 1 0 20 8 7 33 8 0 0 1 11 7 135 135 0 0 6 15 116 36 135 113 9 10 4 24 19 2 7 37 127 57 7 9 18 31 11 15 18 7 5 14 23 3 44 35 0 0 16 65 135 38 4 1 5 5 1 34 50 15 0 1 97 119 8 3 14 15 2 3 24 44 25 47 15 2 0 0 0 0 3 15 109 51 0 0 0 0 0 2 69 44 0 0 64 33 0 0 3 21 7 9 78 24 1 1 1 32644
-0.10364134 -0.057095584 0.71017653 110 28 25 8 15 2 0 1 50 34 4 11 125 11 0 3 106 107 4 7 30 3 0 4 48 5 1 5 55 9 0 7 125 8 2 4 22 1 0 3 77 11 0 43 125 21 5 6 125 33 0 13 39 4 4 22 79 2 0 6 52 0 0 6 125 84 11 2 10 2 0 2 38 69 18 5 73 63 52 31 88 12 3 5 35 15 52 123 78 3 0 7 56 2 1 5 10 62 9 1 7 17 38 20 8 125 55 3 6 7 9 6 6 123 77 16 16 1 6 14 70 11 13 19 24 0 0 1 4 32644
-0.10240285 -0.050403852 0.71245456 42 1 0 3 64 3 0 3 29 12 30 81 122 7 0 4 104 53 30 19 46 22 6 12 12 1 0 1 122 32 4 2 56 1 0 6 78 4 0 6 42 1 0 3 122 68 2 13 122 11 0 2 78 20 2 34 20 1 0 1 122 21 11 4 73 20 1 7 68 4 1 3 42 9 2 30 90 122 4 5 122 19 3 15 60 53 6 8 30 5 0 1 100 35 32 16 60 10 1 6 64 0 0 1 34 11 11 122 95 6 1 2 122 33 15 50 35 7 1 12 43 4 0 1 41 19 10 24 1 32644
-0.10240285 -0.050403852 0.71245456 41 32 29 33 28 0 0 11 50 5 3 45 86 6 6 24 36 2 2 37 59 13 58 114 33 0 0 17 39 10 15 81 114 30 29 9 9 0 0 54 73 21 4 70 114 1 2 29 114 60 3 17 31 2 22 64 26 3 0 32 91 3 6 31 114 1 0 33 38 1 0 92 80 9 4 114 114 4 2 32 114 21 2 30 24 0 0 58 47 2 0 30 46 1 0 48 78 63 3 12 36 14 5 19 45 7 1 23 54 42 71 85 70 0 0 27 31 1 9 78 63 0 0 10 11 0 0 55 3 32644
-0.069294766 -0.033623312 0.69455326 30 7 1 6 36 30 25 46 28 12 1 3 11 113 90 7 2 5 0 0 13 119 118 3 13 33 1 0 1 93 105 6 11 12 9 26 105 2 2 12 119 48 3 11 46 9 7 9 40 2 0 0 104 68 30 15 31 3 0 1 19 119 83 18 23 28 34 56 91 2 2 10 119 15 3 13 46 1 0 55 56 2 1 3 119 12 0 7 52 5 1 3 16 20 4 8 23 99 114 27 4 0 0 3 73 119 71 6 5 0 0 15 28 45 18 24 53 2 0 2 41 24 4 28 17 3 3 6 1 32644
-0.036881376 -0.030903457 0.67356461 0 0 0 1 3 2 1 0 60 1 0 3 6 1 0 16 138 6 3 14 7 0 1 92 21 3 62 102 34 11 6 19 0 0 0 2 12 7 2 0 93 13 1 7 10 2 10 21 138 29 0 10 55 4 1 30 21 8 28 72 138 24 3 3 8 0 0 0 6 8 5 14 68 4 0 0 2 3 52 138 123 4 0 1 36 20 31 138 9 0 0 1 138 123 67 25 16 7 0 0 1 3 1 5 110 123 13 0 0 0 3 48 26 85 93 12 7 6 8 43 18 20 20 7 11 24 31 19 4 32644
-0.040267248 -0.026903281 0.67681217 15 0 0 1 4 1 0 6 126 2 1 4 2 0 2 114 35 2 43 63 22 29 26 57 1 1 23 35 96 72 9 1 39 5 1 5 8 1 2 6 126 19 1 9 27 1 1 25 38 9 53 114 126 8 1 3 88 23 49 38 27 14 17 25 31 2 0 1 4 3 31 91 126 4 0 0 28 11 28 126 21 2 1 4 126 107 52 24 94 6 1 1 15 21 79 116 72 59 4 0 0 0 4 39 31 66 57 8 7 6 12 57 13 15 18 7 19 38 44 24 4 4 3 9 6 4 57 53 1 32644
-0.058290057 -0.0035780035 0.69994801 3 12 8 16 95 10 0 0 14 111 29 9 28 15 1 1 1 26 15 7 75 96 4 1 15 37 9 0 24 94 5 1 2 8 8 9 76 63 2 0 10 92 34 9 90 85 3 1 111 83 32 5 12 33 18 33 15 3 0 1 69 111 19 13 6 23 31 26 31 13 2 8 16 6 6 16 99 111 39 27 111 111 10 6 48 37 9 13 19 62 12 15 111 39 1 3 26 13 9 4 31 11 0 14 28 24 11 6 106 42 7 28 31 94 4 5 111 74 1 0 52 105 3 2 26 24 0 0 3 32644
-0.058290057 -0.0035780035 0.69994801 123 7 0 0 16 13 4 44 38 3 0 0 123 86 5 15 123 18 3 7 24 18 4 50 27 3 3 24 39 43 5 11 123 44 7 13 12 8 3 39 31 19 8 82 123 64 4 15 123 82 25 27 29 11 5 48 20 5 13 44 14 17 23 20 112 101 12 13 6 3 2 4 26 18 10 53 84 118 15 10 123 42 2 4 21 50 7 30 50 13 1 1 11 26 18 25 123 25 0 1 11 3 1 7 79 13 1 3 40 76 9 10 80 6 0 1 33 60 10 44 48 4 0 0 1 4 10 31 2 32644
-0.066781156 0.0011140293 0.70915294 52 8 1 14 126 76 5 33 126 32 24 28 7 7 4 88 20 2 14 89 50 26 7 10 71 4 1 5 6 4 3 37 44 37 7 101 126 46 2 8 126 103 28 17 4 5 13 57 22 3 10 25 13 55 58 43 101 0 0 1 3 13 8 50 32 2 1 7 80 126 14 14 126 39 0 0 10 29 8 47 54 18 2 2 21 36 21 28 39 0 0 0 3 11 13 71 23 4 1 6 76 94 8 10 123 3 0 0 18 32 11 91 47 1 0 0 0 9 20 48 13 0 0 0 1 3 10 64 2 32644
-0.043078113 0.0032975476 0.69017559 26 17 4 10 16 2 9 41 18 9 3 76 125 20 13 14 134 54 5 22 23 5 2 29 15 11 4 59 98 7 2 7 65 39 5 14 31 7 2 17 36 9 3 32 134 27 2 5 134 32 2 9 45 2 0 2 24 7 2 42 134 2 0 1 80 65 18 25 29 6 2 13 38 14 15 84 134 25 2 4 134 15 1 8 43 7 1 15 28 3 0 4 134 47 2 6 23 49 18 18 24 7 11 35 19 11 15 55 60 69 23 14 134 69 11 8 18 14 1 5 15 19 19 44 61 20 1 2 2 32644
-0.043078113 0.0032975476 0.69017559 72 21 1 2 11 14 17 45 15 9 1 9 134 62 12 9 64 69 20 11 26 9 13 53 19 9 16 44 24 42 17 17 134 35 2 7 24 2 0 7 42 5 1 24 134 6 1 8 134 16 1 5 42 11 16 96 28 5 1 13 79 67 21 30 134 1 0 2 28 8 3 58 46 1 0 8 134 23 2 11 134 19 2 7 35 8 3 40 29 6 2 21 69 32 4 15 85 7 3 11 23 12 4 58 27 6 2 33 134 41 5 27 115 17 15 15 14 8 4 85 15 1 8 37 29 19 4 11 1 32644
-0.008630557 0.0054884981 0.67174435 36 12 0 0 0 2 7 41 71 34 0 1 6 6 56 135 35 9 0 4 94 56 58 38 113 22 0 2 21 5 4 46 52 25 0 0 1 7 2 3 135 72 1 4 15 1 0 18 52 21 3 38 135 5 1 5 135 79 5 11 29 4 1 2 45 1 0 0 2 13 3 4 135 10 0 4 18 5 1 13 46 9 2 29 135 43 2 7 112 69 10 13 32 9 4 35 21 1 0 0 3 8 4 12 135 62 7 3 5 3 4 18 29 33 15 37 126 26 2 9 82 26 2 6 25 9 8 71 2 32644
0.002998882 0.014584378 0.66622216 2 19 1 0 0 0 0 0 36 18 0 0 0 0 0 11 80 5 0 0 0 3 22 126 7 4 0 0 7 62 46 36 6 16 1 0 0 0 0 6 94 14 0 0 0 0 12 36 126 13 0 0 1 5 11 86 34 5 0 0 57 110 17 22 32 2 1 0 0 0 3 100 40 1 0 0 3 37 120 126 126 126 1 0 9 41 30 19 31 120 4 0 19 50 2 1 103 24 2 0 0 0 0 104 59 52 8 1 18 54 30 86 7 56 4 2 68 126 6 0 12 126 17 3 10 10 1 0 3 32644
-0.013579547 0.016331863 0.67864722 27 3 1 51 98 11 7 9 126 3 0 10 26 4 2 62 26 1 0 60 102 3 2 23 13 1 0 42 63 1 0 2 42 11 5 110 103 0 0 4 126 28 8 18 15 2 1 24 34 4 5 98 126 7 1 10 34 2 1 34 50 0 0 9 45 3 1 35 126 6 9 34 126 49 27 35 11 10 17 55 9 10 25 126 74 20 16 24 18 0 0 14 11 1 40 87 72 13 4 33 36 3 12 61 43 3 1 25 46 23 44 82 48 17 4 33 51 33 27 57 30 10 3 2 3 9 95 92 4 32644
-0.02931622 0.035491191 0.69621289 92 16 0 0 0 0 0 11 113 33 4 5 5 4 2 21 43 5 3 13 33 20 3 5 174 32 0 0 1 1 1 3 88 7 0 0 0 1 15 53 166 16 2 2 3 8 10 39 42 2 1 4 25 44 14 15 174 20 0 0 1 3 1 9 24 7 6 11 12 21 51 66 174 17 1 4 11 8 6 11 49 5 0 3 51 17 2 9 174 16 0 0 2 2 1 12 26 37 29 23 6 2 6 17 122 8 3 6 4 2 3 29 34 1 0 0 13 16 9 16 174 9 0 0 0 1 3 17 2 32644
-0.04960791 -0.20940106 0.6129337 10 0 0 23 152 0 0 1 155 1 0 3 8 0 0 37 120 0 0 2 6 3 7 24 0 0 0 5 5 8 14 0 25 0 0 30 155 0 0 2 155 12 1 2 6 0 0 37 121 11 21 11 10 0 0 12 0 0 22 11 7 0 0 0 33 1 0 12 155 3 0 1 155 41 8 1 4 1 1 22 54 33 106 17 1 8 7 6 0 0 122 12 1 4 7 0 31 0 0 1 127 28 1 5 155 1 0 0 3 3 3 53 30 1 4 2 7 26 17 14 0 0 7 2 2 18 24 0 4 32644
0.0030180113 -0.18234091 0.5914079 1 7 1 0 7 18 0 2 8 7 1 0 0 0 12 23 16 13 0 0 0 7 21 11 24 39 0 0 0 1 0 0 15 1 0 0 48 95 2 20 82 2 0 0 2 18 72 124 8 1 0 0 55 124 91 36 12 28 0 0 19 22 1 0 30 5 1 1 113 124 1 5 124 103 4 1 12 26 9 44 38 44 11 6 124 124 11 11 1 10 1 1 81 71 0 0 17 11 1 1 92 124 1 1 41 124 9 2 51 49 0 0 32 124 22 11 67 26 0 0 1 3 1 1 89 81 2 0 4 32644
0.0030180113 -0.18234091 0.5914079 31 0 0 0 15 8 0 5 137 0 0 0 8 11 5 57 25 0 0 2 137 84 8 19 137 2 0 1 40 14 1 18 46 2 0 0 28 7 0 5 137 31 10 13 9 5 2 31 46 10 12 110 137 47 3 8 137 13 1 19 57 10 1 16 16 13 3 4 35 1 0 1 75 112 110 28 2 0 0 2 16 19 100 137 47 0 0 0 137 9 3 21 12 0 0 15 0 1 2 4 41 1 0 0 0 5 25 10 11 1 0 0 15 4 20 16 4 3 0 0 137 31 2 1 0 0 0 4 2 32644
-0.080869414 -0.14558378 0.65501434 5 5 12 113 62 1 4 2 132 23 8 40 17 0 1 34 54 5 4 78 21 1 6 53 35 14 8 61 16 1 2 23 25 6 4 26 132 18 5 4 132 15 3 22 51 2 0 34 69 16 14 132 132 9 6 22 90 70 19 43 12 3 5 41 13 14 11 10 116 99 19 10 132 33 37 41 35 31 23 36 25 43 78 84 84 17 14 24 35 36 41 67 8 5 12 81 5 15 19 14 15 13 13 9 3 2 10 61 64 9 9 5 2 31 39 31 21 1 7 9 2 33 42 36 7 5 10 3 4 32644
-0.10766846 -0.14061688 0.67830068 0 78 140 4 0 0 0 0 0 42 140 40 3 3 2 0 5 140 140 10 1 1 4 3 4 124 140 0 0 0 0 1 1 76 77 4 2 5 0 0 25 58 52 27 9 17 39 7 30 55 48 9 12 16 69 28 48 84 57 1 0 2 5 23 10 25 15 1 17 58 18 18 117 45 3 1 7 6 11 86 27 15 4 11 65 35 11 17 50 70 12 2 3 5 3 8 14 5 2 1 14 44 18 18 53 15 28 46 7 3 6 64 4 1 109 90 21 11 4 7 9 32 120 12 1 2 4 5 2 32644
