# .PCD v0.7 - Point Cloud Data file format
VERSION 0.7
FIELDS x y z descriptor multiplicity pointId
SIZE 4 4 4 4 4 4
TYPE F F F F I I
COUNT 1 1 1 128 1 1
WIDTH 80
HEIGHT 1
VIEWPOINT 0 0 0 1 0 0 0
POINTS 80
DATA ascii
-0.094220594 -0.087227814 0.68872535 3 1 0 5 119 48 0 1 12 9 1 3 68 10 6 45 34 5 0 0 0 0 9 112 23 6 21 11 2 1 10 55 5 0 1 34 119 17 1 3 107 2 0 7 65 8 25 119 24 0 0 0 2 19 109 101 4 3 15 22 53 55 18 9 12 20 5 3 119 107 1 1 119 21 0 1 46 58 5 22 92 12 0 29 15 15 30 14 3 5 5 103 78 38 8 2 65 36 2 0 53 46 0 1 117 9 0 0 60 58 6 9 83 14 0 31 76 3 0 1 5 4 7 107 105 6 0 8 1 32644
0.010464758 -0.080486737 0.62315172 1 1 1 0 3 1 1 2 112 2 0 1 18 4 0 1 216 5 0 0 1 0 0 2 40 1 0 0 4 1 1 2 0 1 1 2 3 0 0 0 135 6 0 6 20 1 0 1 216 14 0 1 1 0 0 1 53 2 0 3 8 0 0 0 2 4 0 0 5 2 1 0 137 2 0 2 29 3 0 2 216 6 0 0 1 0 0 9 54 1 0 2 15 1 2 4 9 14 0 0 3 1 0 0 110 1 0 1 23 5 1 6 216 1 0 0 1 0 0 25 38 0 0 4 23 2 0 4 1 32644
-0.064580508 -0.082643896 0.66925508 6 3 1 33 20 1 1 2 29 22 2 0 1 6 22 22 91 7 0 0 1 7 26 148 44 0 2 22 18 3 14 148 2 3 1 4 21 20 23 5 53 56 12 2 2 20 12 6 148 44 2 0 0 1 1 59 93 4 9 9 26 34 10 30 1 1 0 0 9 57 75 4 48 6 1 0 30 67 25 9 148 109 75 6 2 4 2 14 42 38 148 59 0 4 4 3 15 2 0 0 14 49 23 10 4 3 2 3 70 69 4 1 13 41 88 20 16 7 32 53 0 6 133 32 0 0 125 93 2 32644
-0.01322946 -0.078356951 0.63791603 0 0 41 135 32 27 6 0 81 8 31 77 9 15 22 46 135 14 3 1 17 12 5 42 4 0 0 0 106 32 3 2 5 5 1 41 62 39 3 0 77 21 2 21 18 15 9 11 135 44 0 0 23 5 0 8 15 2 0 2 135 18 0 1 19 5 1 33 85 24 2 3 102 7 4 22 16 5 1 31 135 9 0 0 17 4 0 56 17 1 0 2 135 15 0 3 8 0 0 3 40 135 44 25 73 7 0 1 17 61 18 31 135 67 0 1 10 1 1 14 13 12 0 3 135 6 0 0 2 32644
-0.098482639 -0.073677383 0.69848633 2 7 30 15 2 7 19 11 6 1 21 53 10 10 3 7 24 1 10 18 0 0 13 127 2 1 3 1 0 0 74 127 16 7 0 1 6 79 110 52 38 0 0 6 37 127 21 17 127 11 0 1 2 11 5 127 31 4 10 29 29 2 11 59 55 127 0 0 5 43 14 9 15 14 0 0 37 127 13 6 127 55 0 0 4 67 17 14 46 45 2 9 62 35 0 1 46 127 0 0 11 26 0 0 27 100 0 0 10 77 1 0 19 32 2 0 23 119 6 1 15 113 8 1 11 23 0 0 1 32644
-0.080202036 -0.072695822 0.68643343 100 0 0 5 33 0 4 136 26 1 5 7 0 0 18 136 6 10 7 6 29 1 5 26 10 0 0 17 136 1 0 5 136 3 0 5 21 0 0 67 54 8 9 39 31 1 0 24 37 28 10 18 47 0 0 2 23 1 0 32 136 0 0 7 136 82 0 4 11 0 0 4 50 25 0 7 42 19 9 9 42 3 0 11 70 4 7 26 37 0 0 25 136 2 0 10 116 136 1 1 2 0 2 1 35 136 24 0 1 6 8 4 3 20 21 18 68 2 7 13 36 0 1 18 135 2 0 12 1 32644
-0.080202036 -0.072695822 0.68643343 134 18 0 2 15 2 8 16 28 5 8 13 5 30 49 7 1 6 6 2 34 136 29 0 13 0 1 1 85 136 1 4 136 30 0 2 33 1 0 0 54 12 8 22 46 5 0 1 43 23 8 5 48 43 0 4 21 1 0 0 136 114 0 1 136 24 0 1 41 2 0 0 71 5 0 1 31 33 10 7 37 1 0 13 46 12 11 33 17 1 0 35 136 12 0 1 136 28 0 3 42 1 0 0 75 10 0 10 5 9 6 2 1 0 3 124 31 3 6 7 11 2 1 136 114 0 0 1 1 32644
-0.10439783 -0.061117198 0.70916331 0 7 107 1 0 3 54 0 5 36 44 1 1 4 76 1 2 5 0 34 56 32 45 1 7 2 10 98 43 7 1 2 23 29 116 10 7 14 5 6 116 113 70 12 3 0 1 14 24 14 7 116 116 1 0 0 40 4 1 86 88 0 0 5 21 1 2 1 7 64 116 29 110 28 22 27 19 18 74 51 6 7 27 116 74 6 1 0 20 15 1 23 67 10 13 2 0 4 116 2 0 11 81 3 0 2 87 77 49 21 49 6 18 3 9 84 64 6 1 10 31 5 3 4 5 8 68 67 1 32644
-0.10439783 -0.061117198 0.70916331 63 8 0 1 29 29 6 20 102 45 22 22 2 1 16 90 2 5 90 119 16 4 15 33 0 12 108 85 2 0 1 2 46 21 9 25 31 9 2 14 119 51 14 12 6 18 14 63 8 5 20 54 104 119 35 21 4 18 25 10 17 22 68 105 54 48 6 5 5 40 7 2 119 56 0 0 2 9 4 27 45 8 2 4 31 119 78 21 0 0 13 24 3 19 115 110 34 6 0 0 69 97 3 5 119 44 5 0 2 2 0 11 37 29 50 38 0 4 6 1 0 0 34 60 0 1 5 4 2 32644
-0.10515505 -0.050580196 0.71410894 35 1 0 22 128 1 0 8 74 47 1 12 60 3 24 47 31 44 1 0 2 1 57 78 7 1 0 9 75 4 3 16 26 1 0 21 128 4 0 6 37 119 16 13 94 7 0 1 128 128 9 2 3 0 1 5 20 8 0 17 90 8 0 1 12 0 3 99 128 1 0 3 68 12 17 69 59 2 0 8 128 21 1 7 10 0 0 46 26 1 0 45 74 0 0 4 3 1 3 41 128 32 21 2 70 3 11 17 13 34 68 45 128 1 0 4 17 0 5 70 9 0 0 18 74 0 0 2 2 32644
0.024252206 -0.036315139 0.63380599 0 2 2 2 2 0 0 0 77 2 1 7 23 3 0 4 213 5 0 0 1 0 0 8 61 0 0 0 1 1 0 2 0 2 4 7 3 0 0 0 112 3 1 18 24 0 0 4 213 2 0 1 1 0 0 23 71 0 0 1 2 0 0 4 0 1 7 6 5 0 0 0 141 2 1 14 30 0 0 9 213 1 0 0 1 0 0 49 52 0 0 0 2 1 0 8 0 0 5 9 4 0 0 0 145 2 1 15 21 0 0 17 213 1 0 0 0 0 0 51 28 0 0 1 1 1 0 4 1 32644
-0.052237399 -0.037436184 0.68083215 3 47 80 26 3 0 16 10 15 8 44 60 65 19 12 19 13 1 3 5 16 23 113 121 3 4 6 3 0 7 134 38 11 68 134 25 1 0 0 1 134 53 97 26 1 0 0 29 88 4 7 36 15 4 4 45 23 18 16 21 5 2 5 15 34 9 18 3 2 8 2 5 134 99 4 1 0 0 1 12 89 56 5 7 13 17 20 9 8 1 4 74 18 4 17 29 6 5 0 0 2 2 0 0 77 134 5 0 1 1 0 0 27 134 118 12 0 0 3 1 5 8 83 113 13 2 8 9 1 32644
-0.083603084 -0.035372779 0.70320183 8 0 0 18 121 21 21 33 13 0 2 1 17 14 59 121 14 5 5 2 7 2 24 100 3 1 0 17 121 25 1 8 64 13 5 47 59 2 4 34 63 6 12 32 11 0 4 73 25 34 23 26 21 0 1 6 14 4 1 87 121 0 0 5 121 102 43 64 7 0 0 1 88 32 1 17 31 10 7 8 45 5 1 33 61 3 6 25 40 0 0 84 121 0 0 20 121 121 18 10 1 6 6 2 77 121 9 0 2 5 10 7 4 18 8 44 92 4 9 16 55 0 0 37 106 0 0 39 2 32644
-0.083603084 -0.035372779 0.70320183 128 28 0 3 12 6 20 21 14 7 8 18 8 77 64 4 1 3 3 2 32 128 27 4 28 1 0 0 9 91 55 123 128 51 0 2 35 4 0 0 45 16 7 19 46 14 1 2 36 12 3 2 53 99 4 7 79 5 0 2 47 78 19 38 128 31 0 0 45 11 1 1 71 8 0 1 18 39 20 12 22 0 0 42 72 13 13 28 50 44 12 66 82 8 0 1 128 47 0 0 52 10 0 0 73 35 1 15 10 5 8 2 0 0 1 128 97 6 4 2 63 65 24 116 62 3 0 0 2 32644
-0.059385616 -0.034932304 0.68545586 0 0 1 45 51 28 50 26 29 3 2 36 75 56 36 85 14 0 2 3 1 39 130 107 0 0 1 1 13 130 69 0 6 4 3 88 130 11 2 1 130 21 8 52 49 4 1 38 78 6 12 28 22 8 9 32 16 11 8 6 40 102 6 3 6 2 2 8 130 92 3 3 130 12 0 2 50 58 10 23 93 8 2 6 24 28 12 8 19 2 6 50 36 10 8 19 4 25 10 7 37 54 1 0 91 25 1 1 42 70 6 9 66 31 6 36 26 8 3 1 0 0 33 130 40 15 2 1 1 32644
-0.055158067 -0.033616297 0.68367404 32 2 1 15 41 35 30 99 14 0 2 4 1 36 131 102 0 1 2 1 14 131 93 0 1 1 2 1 25 116 18 36 131 24 6 26 21 1 1 29 65 7 12 31 26 6 6 22 24 18 12 8 37 107 5 3 15 2 0 1 55 131 37 65 131 25 0 2 24 30 6 12 79 12 1 4 29 31 13 7 30 3 4 36 38 13 12 27 12 35 26 93 80 16 3 6 93 22 0 0 19 60 8 10 72 33 3 22 16 7 5 2 1 0 31 131 45 8 4 3 1 29 32 131 37 4 0 0 2 32644
-0.11173137 -0.033293981 0.72774559 0 0 114 46 0 0 0 0 0 3 127 54 0 0 0 0 8 18 127 9 0 0 3 7 2 2 79 3 0 0 32 10 2 4 31 30 9 0 0 0 17 12 42 127 26 0 0 1 127 43 36 17 0 0 11 85 29 6 15 1 0 0 127 82 10 2 1 19 51 3 0 2 42 18 6 73 123 14 2 1 127 127 79 7 3 2 3 25 25 51 127 22 0 0 11 16 7 0 0 1 34 21 1 8 4 5 0 2 53 77 54 2 9 45 43 2 2 25 109 4 3 18 114 19 9 54 27 1 2 32644
-0.095187232 -0.032993831 0.7146008 29 4 19 45 90 6 8 52 122 7 5 2 16 1 1 76 49 0 0 1 122 39 12 35 39 1 3 5 10 10 11 122 99 3 8 30 33 2 4 54 122 40 12 8 15 0 0 51 62 37 20 64 107 4 1 9 70 39 6 14 20 3 1 13 45 5 4 3 3 6 38 54 38 74 112 33 20 23 3 4 31 95 122 122 22 8 4 1 75 122 17 7 4 4 5 3 3 17 5 0 2 7 13 7 1 6 12 7 16 88 15 1 8 17 16 15 5 77 59 2 18 122 41 2 4 27 15 2 1 32644
-0.095187232 -0.032993831 0.7146008 6 4 41 19 0 0 4 8 6 14 66 14 4 2 10 8 2 4 7 35 51 38 6 5 47 21 8 22 19 29 3 47 20 4 60 69 3 9 30 15 98 24 39 10 0 5 45 124 10 6 2 0 17 124 78 43 18 45 5 4 72 110 2 3 15 1 4 7 2 54 124 31 123 60 1 0 1 48 117 62 21 94 7 0 12 124 19 11 3 9 2 1 72 124 12 5 2 19 7 8 11 22 34 4 13 24 3 1 20 74 39 5 2 101 48 16 66 44 2 1 0 119 27 2 3 108 9 0 2 32644
-0.11788256 -0.0304958 0.73041862 13 9 6 0 0 2 9 6 118 7 0 0 0 0 0 7 158 3 0 0 0 0 0 17 58 0 0 1 1 0 0 6 20 124 41 0 0 0 6 3 122 71 1 0 0 0 0 3 158 20 0 0 0 0 0 9 66 0 0 0 2 0 0 4 40 43 4 0 1 68 158 36 158 25 0 0 0 8 16 48 158 3 0 0 0 0 0 38 57 1 0 1 3 0 0 4 16 0 0 3 84 98 60 17 93 0 0 1 35 23 12 29 158 0 0 0 0 0 0 33 35 1 0 1 1 0 0 2 2 32644
-0.072007917 -0.026048984 0.69979089 47 21 1 18 57 1 0 0 131 130 33 10 1 0 1 6 9 18 68 91 0 0 33 41 0 0 18 42 0 0 64 89 30 9 0 10 75 2 0 2 131 56 5 1 5 0 3 79 49 17 18 4 0 0 58 131 2 8 11 6 0 0 37 58 20 9 0 16 53 1 0 1 131 131 2 1 6 0 0 13 111 82 26 5 1 0 1 32 10 9 14 108 13 0 1 8 5 2 0 2 44 4 0 0 131 37 0 0 10 2 0 13 131 29 17 47 2 0 0 31 1 0 3 115 33 4 19 25 2 32644
-0.034171231 -0.023249032 0.6737482 0 0 0 0 5 6 1 0 15 0 0 0 13 4 1 18 78 0 0 0 1 0 23 152 11 0 0 0 0 12 152 130 0 0 0 0 9 5 0 0 83 1 0 0 12 6 0 16 152 7 0 0 0 0 1 125 72 3 6 35 17 3 19 64 0 0 0 0 2 6 2 0 75 11 0 0 7 12 1 3 152 120 0 0 0 0 0 4 84 45 2 27 98 18 0 1 0 0 0 1 4 3 1 0 11 13 2 12 11 2 0 0 142 152 3 3 1 0 0 2 95 129 0 0 31 28 0 0 2 32644
0.033086509 -0.016133819 0.63823813 0 0 4 7 2 0 0 0 110 6 1 6 17 1 0 3 216 27 0 0 0 0 0 2 51 3 0 0 0 0 0 0 1 2 3 3 3 0 0 0 119 13 1 6 20 2 0 3 216 37 0 0 0 0 0 6 75 5 1 1 0 0 0 1 1 2 0 1 3 1 4 2 125 3 0 5 20 6 2 15 216 5 0 0 0 0 0 32 72 1 0 1 1 0 0 5 0 0 0 0 2 11 27 10 100 8 0 0 21 21 5 5 216 11 0 0 1 0 0 16 49 1 1 2 0 0 0 2 1 32644
-0.077478543 -0.01138388 0.71048719 13 7 36 47 0 0 0 1 7 12 49 64 4 2 1 1 10 11 11 28 11 10 20 13 31 23 11 9 1 0 8 18 10 7 70 120 2 0 0 2 120 54 47 35 8 4 2 17 23 47 35 47 77 9 9 13 3 63 63 104 9 0 3 6 66 12 43 77 1 2 17 79 90 52 31 19 18 32 45 53 7 31 66 120 83 5 0 1 2 20 93 120 9 0 0 4 120 4 6 19 5 2 7 120 17 2 11 120 58 32 20 22 0 0 10 120 58 4 0 0 41 1 11 120 15 0 1 66 1 32644
-0.077478543 -0.01138388 0.71048719 55 0 0 39 28 1 0 113 119 13 2 0 0 0 3 119 53 28 33 48 67 3 5 75 9 0 3 71 119 9 11 40 34 0 0 2 5 6 40 119 110 12 3 0 6 24 53 119 12 20 39 53 101 66 31 17 10 0 4 33 43 12 25 119 31 0 0 2 1 40 76 119 102 13 6 9 17 41 53 41 11 6 3 8 118 73 40 39 6 0 0 0 8 11 43 119 8 0 2 12 15 20 20 38 10 6 20 25 15 19 12 14 13 4 4 2 4 8 21 66 2 1 0 0 7 5 16 59 1 32644
-0.022221563 -0.0016544526 0.67533815 1 0 4 11 2 0 0 2 1 0 0 5 3 6 23 20 1 0 0 7 7 28 40 24 2 0 0 2 1 1 52 116 20 0 1 2 2 1 5 10 99 2 0 0 4 13 47 115 34 13 1 4 65 93 87 57 116 55 4 5 6 5 38 116 17 0 0 0 0 35 106 58 116 84 5 0 7 53 32 23 35 65 36 5 75 97 38 14 84 62 41 43 5 17 37 33 25 0 0 4 3 67 67 116 5 39 10 19 32 116 30 2 1 56 116 28 28 36 7 1 19 9 116 52 0 2 8 14 2 32644
0.091729462 0.0072647873 0.67233741 0 0 1 69 14 1 1 1 37 1 0 68 55 14 1 7 164 1 0 4 5 1 1 58 65 0 0 0 0 2 17 24 0 0 1 53 12 6 7 16 63 1 0 11 75 34 7 12 164 5 0 2 6 2 1 64 76 3 5 1 0 2 28 30 10 3 0 4 15 4 5 20 61 13 0 13 142 7 2 4 164 154 23 3 10 0 0 11 38 55 164 17 0 1 4 5 5 10 2 6 11 0 0 0 31 9 1 30 112 0 0 1 164 67 11 4 10 0 1 17 19 19 60 9 0 2 14 8 1 32644
-0.062188014 0.016888378 0.71324188 1 36 91 16 5 18 14 3 2 29 117 34 8 4 4 1 13 92 117 5 1 1 3 14 2 54 117 13 3 2 2 2 30 11 9 17 43 33 26 21 41 7 18 34 117 31 9 8 117 19 18 9 28 29 20 89 6 17 37 15 63 56 24 10 46 117 67 19 22 1 0 2 42 18 38 27 117 42 3 9 117 101 18 4 22 25 2 18 8 35 14 2 32 65 60 4 18 104 55 1 0 6 73 20 7 47 82 19 11 17 15 8 13 117 50 7 2 2 0 2 2 117 42 0 0 1 4 1 1 32644
-0.094645232 0.032548204 0.74253613 141 26 0 0 2 2 0 4 169 30 0 0 0 0 0 3 85 9 0 0 3 1 0 1 0 0 0 1 26 3 0 1 136 9 0 0 0 0 0 39 169 34 0 0 0 0 0 14 118 18 1 1 2 0 0 0 1 3 2 12 29 1 0 0 114 0 0 0 0 0 0 79 169 5 0 0 0 0 0 73 107 18 1 1 2 0 0 5 2 3 1 9 34 3 0 1 75 1 0 0 0 0 1 123 169 0 0 0 0 0 0 140 50 4 1 2 2 1 0 11 1 2 3 20 20 5 0 0 1 32644
0.084986664 0.065261744 0.70490938 20 0 1 7 8 0 0 19 5 21 39 71 49 0 0 1 72 119 31 11 4 0 0 0 68 119 6 0 0 0 0 0 12 1 0 13 34 0 0 8 20 9 3 66 119 1 1 3 119 43 4 15 17 1 1 14 57 87 40 56 10 0 0 1 6 2 1 48 47 0 0 0 37 4 4 79 119 5 5 39 119 4 1 34 27 2 3 119 60 20 14 119 61 0 0 7 1 0 0 74 75 0 0 1 119 10 6 64 48 0 0 32 99 2 0 67 77 0 0 38 90 3 1 91 81 0 0 36 1 32644
-0.062943034 -0.057932463 0.67930567 0 0 19 45 42 37 108 44 56 11 3 33 124 47 12 10 124 52 19 5 4 0 19 88 3 3 37 26 0 0 80 58 0 0 124 124 17 3 10 9 82 14 24 83 65 5 1 10 124 86 27 5 2 0 10 72 6 10 67 31 0 0 42 47 0 1 17 13 10 6 12 13 75 12 2 4 38 6 3 13 124 73 66 16 2 0 9 86 7 6 124 96 0 0 32 39 0 1 1 4 8 2 0 0 15 14 1 2 18 10 5 1 30 65 85 20 1 1 8 6 0 2 92 55 0 0 14 12 2 32644
-0.078332081 -0.046994805 0.69449168 12 0 0 0 12 6 14 11 38 0 0 0 7 12 6 12 126 1 0 0 6 22 53 78 6 0 0 2 94 99 41 9 33 4 0 0 8 48 86 68 55 1 0 0 4 136 49 9 136 11 0 0 25 15 5 16 26 2 0 7 136 16 1 2 132 31 0 1 7 23 16 53 27 2 0 0 46 136 21 16 136 7 0 0 36 50 9 19 31 2 0 0 136 68 23 1 42 3 3 1 2 4 5 96 7 2 3 5 97 31 1 12 118 1 0 1 55 17 1 6 32 0 0 1 18 45 36 4 1 32644
-0.078332081 -0.046994805 0.69449168 28 23 4 6 1 0 3 130 71 25 2 41 2 0 0 130 16 3 7 130 2 0 0 30 3 0 0 31 2 1 7 104 29 4 4 35 2 0 5 130 14 5 12 130 12 0 1 65 130 11 17 80 1 0 0 66 30 2 28 14 3 4 3 64 40 58 68 117 1 0 0 19 52 11 16 130 5 0 0 2 130 58 15 27 4 0 0 11 19 10 66 122 24 0 0 6 12 33 35 22 1 2 0 1 20 10 6 20 0 0 0 7 46 86 55 17 1 0 0 6 10 11 34 62 15 1 2 81 1 32644
-0.086031049 -0.047235638 0.70009315 5 4 78 121 0 0 6 15 85 10 56 76 0 0 0 60 45 5 19 6 0 0 12 121 0 3 19 4 9 7 16 21 25 4 45 52 0 0 1 11 121 40 18 16 0 0 0 56 48 20 101 121 2 0 0 21 12 43 121 22 1 1 1 17 11 9 9 7 0 0 1 7 52 105 64 13 0 0 6 30 6 22 69 106 3 1 47 113 17 15 28 25 0 0 44 121 1 1 6 9 0 0 27 67 3 6 7 4 0 0 72 121 1 2 16 52 0 0 63 121 1 0 38 112 1 2 19 39 2 32644
0.051427137 -0.041902281 0.61923283 0 0 3 122 3 1 4 3 81 0 0 18 3 2 14 28 206 0 0 0 0 0 0 54 70 0 0 0 0 0 3 19 4 0 0 13 1 1 4 24 116 1 0 0 4 3 9 14 206 1 0 0 0 0 0 11 96 0 0 0 0 0 1 4 6 0 0 1 2 0 0 15 116 2 0 1 8 2 0 7 206 4 0 0 0 0 0 11 96 2 0 0 1 0 0 1 1 0 0 1 3 1 2 2 84 11 1 4 9 0 0 0 206 23 0 0 0 0 0 0 77 3 0 0 0 0 0 0 1 32644
-0.044038486 -0.019400831 0.68122953 36 15 1 0 20 8 0 4 101 72 40 53 10 2 2 15 8 33 59 120 32 10 4 8 60 76 56 4 0 1 1 49 17 9 1 0 56 12 0 6 96 34 18 10 4 21 41 103 17 2 6 18 9 120 108 83 71 2 3 30 7 5 21 120 26 7 0 17 55 3 0 2 120 97 3 1 3 8 9 33 39 42 34 24 1 56 84 36 4 0 13 120 37 2 25 45 4 4 0 7 31 4 0 0 46 120 22 0 2 2 0 0 8 77 120 52 0 0 1 0 1 0 52 120 4 0 0 1 2 32644
-0.044038486 -0.019400831 0.68122953 0 4 100 7 9 39 54 1 4 39 54 0 0 30 117 3 3 9 1 1 27 117 83 0 0 1 2 2 47 72 3 0 14 17 117 30 42 12 10 5 117 113 87 4 0 1 4 16 41 27 24 117 79 32 3 2 1 0 0 86 115 20 0 1 10 2 4 10 42 69 117 7 70 59 77 31 32 31 28 11 8 16 113 117 7 0 3 7 0 0 2 60 11 0 19 16 0 0 79 99 15 16 28 1 0 0 22 80 44 11 5 10 2 0 12 9 2 0 14 58 0 0 0 1 0 0 45 39 1 32644
-0.068092562 -0.010109633 0.70296997 4 9 8 71 14 0 0 0 24 47 27 68 7 0 0 2 15 28 23 43 53 3 1 1 3 1 25 116 45 0 0 1 9 8 9 116 55 2 1 1 110 28 13 51 14 4 8 43 17 13 10 63 111 20 12 19 21 1 1 94 105 0 0 9 28 9 15 102 116 6 1 1 116 27 7 30 27 1 1 12 25 4 3 113 116 5 2 4 66 7 1 72 88 0 0 15 25 16 17 75 58 34 9 5 114 87 29 24 9 3 11 20 5 9 20 99 101 9 5 2 69 6 1 31 53 1 1 64 2 32644
-0.068092562 -0.010109633 0.70296997 102 27 4 5 22 3 0 9 74 15 12 15 21 51 38 56 41 13 1 7 74 121 19 28 90 26 9 1 3 8 28 88 121 3 0 3 25 16 1 21 121 15 2 2 37 28 5 28 49 4 1 5 121 113 7 21 121 29 2 2 7 11 5 47 121 5 0 4 69 11 0 13 121 43 11 12 12 8 6 23 24 6 8 27 88 63 15 30 99 0 0 0 4 10 7 78 98 0 0 3 67 17 2 52 113 13 0 0 1 7 16 62 21 7 1 1 10 69 25 28 37 0 0 0 0 8 11 65 2 32644
-0.0073866807 0.0043949736 0.6680997 71 64 0 0 0 0 2 17 103 83 2 3 7 8 15 34 18 10 3 15 128 49 8 7 122 39 1 3 23 5 1 18 86 27 0 0 1 3 1 7 128 58 3 7 9 5 3 50 18 10 5 48 128 22 4 12 128 59 4 12 31 4 1 3 91 8 0 0 2 4 1 4 128 45 6 14 10 8 3 20 13 8 7 74 128 64 4 6 127 67 6 15 34 15 0 1 58 1 0 0 1 7 2 4 128 19 3 1 4 8 3 15 21 5 5 7 128 65 4 6 35 25 2 0 59 19 5 30 1 32644
-0.051217142 0.012347315 0.70181477 101 2 0 22 43 2 13 112 26 4 3 7 120 51 46 69 120 1 1 9 61 11 4 98 105 3 1 16 20 3 2 40 120 14 4 13 28 2 2 79 56 14 8 82 120 19 6 25 120 18 1 11 44 8 5 120 46 10 4 27 40 0 0 31 79 5 5 10 33 11 10 120 20 3 3 37 120 30 12 54 95 18 11 7 8 3 7 116 34 13 14 27 17 1 2 15 24 35 67 26 11 4 13 41 27 5 18 33 34 10 5 23 28 11 33 7 2 3 25 29 32 11 22 7 3 4 14 9 2 32644
-0.029959183 0.028976439 0.69489473 49 5 0 1 2 0 20 45 108 17 0 0 0 2 27 43 134 43 2 1 0 2 2 20 25 9 4 14 38 21 3 9 29 25 1 1 3 11 134 134 34 3 0 1 52 88 116 58 134 9 0 0 9 12 5 26 58 3 0 1 51 42 3 11 96 134 22 10 9 4 9 24 23 29 35 62 98 37 5 4 134 15 2 7 20 8 1 15 74 8 0 3 58 9 0 3 84 95 19 4 16 5 7 48 24 22 42 32 3 9 53 45 134 6 2 3 1 2 9 57 47 5 0 1 25 12 3 14 1 32644
-0.11023296 0.039329365 0.75671858 139 16 1 3 4 0 0 11 18 9 3 23 53 1 0 3 139 16 2 3 5 1 0 22 27 0 0 0 56 18 2 9 139 6 1 6 6 2 0 50 26 16 8 49 52 14 3 6 139 43 4 5 3 2 2 24 49 5 1 0 52 32 3 8 71 9 7 3 3 4 1 22 15 16 48 12 20 46 37 27 139 33 11 1 1 4 17 81 41 17 5 2 14 9 4 9 21 9 42 107 39 8 4 7 47 118 139 139 24 5 3 4 139 139 63 2 0 0 1 11 45 4 0 0 0 0 0 14 2 32644
0.0069695124 0.053636551 0.68378079 0 1 0 0 24 10 1 0 139 6 0 0 29 11 0 1 210 20 0 0 0 0 0 1 37 1 0 3 23 5 0 1 18 16 1 0 17 16 2 1 138 10 0 0 42 25 1 2 210 40 0 0 1 0 0 2 58 4 0 3 15 12 5 2 51 14 1 1 13 4 0 0 107 2 1 1 34 21 2 15 210 8 0 0 0 1 1 19 76 1 0 0 0 2 3 7 21 21 5 1 1 0 0 1 84 6 4 2 5 3 1 7 210 3 0 0 0 0 0 9 63 1 0 0 0 0 0 7 2 32644
0.0075010043 -0.18188576 0.58714974 13 13 8 67 71 6 4 19 18 0 1 83 74 2 8 84 13 0 0 2 9 19 97 117 39 0 0 0 5 13 23 53 17 1 1 117 117 5 4 26 117 11 2 30 44 3 4 117 32 4 2 46 87 18 26 117 41 0 0 12 26 9 4 56 37 2 1 117 102 0 0 15 117 46 14 19 13 2 3 71 47 22 28 86 53 2 1 18 74 0 0 6 6 0 0 70 62 1 1 52 31 0 0 47 100 10 8 25 18 8 7 75 63 5 8 33 19 3 1 12 91 0 0 3 4 0 0 28 2 32644
-0.10183584 -0.15711704 0.66643298 18 128 33 4 2 6 3 1 43 77 8 4 7 13 35 32 52 33 10 5 8 6 17 38 11 27 22 10 41 16 1 2 59 77 6 0 6 108 28 13 128 94 7 9 14 4 6 45 29 21 58 108 107 8 6 15 2 25 128 40 10 3 0 0 19 6 0 2 32 128 45 6 118 128 28 16 26 56 6 7 20 48 38 73 102 44 19 6 5 6 43 13 14 62 47 15 1 0 1 3 48 89 20 15 31 28 3 1 68 115 12 20 68 16 4 2 13 17 17 49 12 0 0 3 25 32 31 36 2 32644
-0.03529679 -0.087863773 0.64778304 19 2 7 97 27 4 2 33 26 2 3 22 27 41 67 41 33 7 5 9 16 17 22 50 22 88 29 8 13 4 3 8 94 9 10 73 35 6 2 18 121 10 2 4 6 78 66 69 9 3 9 44 99 121 28 6 2 15 59 33 22 3 0 0 48 2 0 4 26 24 50 121 121 17 8 25 26 13 14 103 7 5 11 108 121 77 2 1 0 6 74 30 56 30 2 0 34 34 80 10 2 2 29 72 2 21 106 18 22 6 10 23 0 5 15 25 121 56 2 0 0 0 1 1 73 49 51 4 1 32644
-0.027588706 -0.074433886 0.64816368 68 1 0 0 0 0 0 5 133 7 0 10 33 1 0 7 24 20 5 62 133 3 0 1 94 111 3 6 4 0 10 14 84 2 0 0 0 0 0 3 133 11 0 2 34 16 1 5 24 9 1 12 133 126 11 4 107 69 1 2 6 23 17 44 78 0 0 0 0 0 0 8 133 8 0 2 14 6 0 5 33 4 0 7 117 79 11 5 80 18 5 2 10 23 24 113 56 0 0 0 0 0 0 9 133 6 0 0 6 4 1 5 37 5 3 11 124 28 1 3 33 81 28 18 30 2 0 7 1 32644
-0.063744172 -0.0088344254 0.70119482 10 9 9 48 17 1 0 4 34 11 22 85 7 0 1 14 28 18 9 42 25 3 3 18 8 1 12 115 24 0 0 5 11 14 37 110 38 5 2 2 117 21 13 57 16 0 0 25 37 4 4 117 78 2 2 14 70 1 1 92 46 0 0 48 14 5 13 67 83 30 13 21 96 43 17 24 16 11 33 48 10 10 14 117 77 8 3 7 117 2 2 37 18 0 1 117 66 2 8 61 13 1 7 87 23 1 1 35 59 25 49 82 34 3 1 57 117 16 5 18 117 46 38 16 5 1 3 117 1 32644
-0.12279756 0.033969074 0.76007009 105 1 1 0 0 0 0 100 22 5 20 8 6 9 4 8 57 20 14 3 3 5 7 25 35 6 0 0 5 5 2 6 56 2 3 11 15 10 11 69 12 25 117 128 68 23 4 4 128 128 96 27 4 3 2 12 74 14 0 0 0 0 0 8 3 0 0 2 32 49 31 69 13 6 9 36 128 128 30 22 128 52 9 7 10 37 29 96 86 33 2 0 0 0 0 6 11 4 0 0 10 12 1 8 3 1 0 0 112 128 5 3 42 80 6 0 33 35 6 14 10 128 29 0 0 0 0 0 2 32644
0.02233367 -0.17343578 0.58090764 85 20 4 4 17 3 1 25 40 26 3 11 122 15 1 7 115 89 10 18 32 2 0 3 66 37 3 13 15 1 0 0 113 19 14 19 24 2 0 7 39 18 11 37 122 16 1 4 122 29 1 8 48 14 4 28 78 47 4 10 34 13 2 4 86 72 19 9 26 7 3 7 33 17 16 43 122 60 9 15 122 77 16 39 66 13 1 15 61 61 14 56 58 3 2 2 19 92 43 7 3 3 18 41 9 22 49 84 34 35 22 15 52 56 16 29 13 8 47 122 22 23 8 18 15 54 111 32 1 32644
-0.080667071 -0.16055065 0.64853352 10 29 38 14 10 7 16 25 13 50 67 26 13 19 33 23 1 1 39 112 88 32 53 10 8 7 38 39 38 37 67 66 9 21 47 30 52 24 3 5 93 55 51 17 5 8 29 73 9 3 29 41 24 28 122 64 3 2 26 122 27 15 122 103 12 3 28 12 8 34 60 14 122 30 13 10 5 4 23 37 26 12 54 122 40 1 8 11 0 1 31 122 53 6 37 22 0 0 0 0 4 117 48 5 17 14 19 25 18 32 16 6 6 6 39 118 20 26 26 17 20 21 22 33 9 6 72 75 2 32644
-0.057655323 -0.11064114 0.65265423 2 3 2 14 30 98 61 5 38 5 1 1 7 81 70 32 113 68 31 15 33 10 29 35 4 9 21 45 113 45 2 1 15 12 63 113 28 10 2 4 113 35 20 6 1 17 62 71 17 23 11 4 32 102 108 32 2 4 4 19 103 74 27 3 19 5 18 31 12 25 67 42 113 111 8 1 0 3 14 44 65 66 14 7 33 66 24 13 2 9 11 10 27 72 113 10 0 1 4 15 36 47 36 5 38 56 40 20 7 4 6 8 43 113 83 20 1 2 3 5 16 43 60 34 2 3 13 5 1 32644
0.089544818 -0.09265849 0.64238209 34 1 0 0 0 1 6 34 36 1 2 7 48 11 2 17 196 1 0 2 20 4 0 40 77 3 4 4 0 1 0 6 15 12 71 24 0 1 1 9 60 17 102 72 15 0 2 7 196 17 11 10 6 0 0 19 76 4 3 8 2 0 0 2 2 4 94 33 0 1 45 75 81 8 42 23 14 10 62 59 196 10 2 2 3 1 4 18 67 1 0 3 6 0 0 1 6 1 1 7 11 3 43 77 63 9 0 37 73 7 17 9 196 14 0 7 9 0 0 3 50 0 0 1 3 2 0 1 1 32644
-0.11719087 -0.093893215 0.70154297 45 20 5 8 8 8 32 38 36 13 2 9 72 12 15 20 143 38 1 4 10 0 0 0 47 7 1 0 0 0 0 0 143 24 5 6 14 4 14 38 35 10 2 22 143 17 10 7 143 32 0 5 22 2 1 6 76 4 0 0 0 0 0 0 132 143 12 4 8 2 1 2 27 22 22 27 112 38 9 15 143 5 1 2 12 9 7 70 67 1 0 0 0 0 0 5 33 143 31 2 1 1 2 1 41 98 91 26 7 1 1 2 143 52 4 2 1 0 0 15 39 5 0 0 0 0 0 2 2 32644
-0.10331523 -0.055860203 0.71121281 3 0 7 9 75 51 42 11 1 1 28 28 15 113 113 5 11 37 27 18 7 86 72 3 8 54 39 40 14 35 5 0 30 4 1 8 77 18 13 15 18 12 25 113 100 44 32 7 75 33 25 30 48 93 46 9 4 4 1 1 113 107 12 1 30 4 0 3 99 16 1 3 32 5 5 26 113 113 10 10 113 14 4 5 67 46 11 26 14 1 0 0 113 71 36 12 31 18 1 5 86 8 1 1 24 16 3 49 75 80 5 4 86 29 6 27 46 34 6 8 31 3 0 0 47 37 19 38 1 32644
-0.031943146 -0.0014521889 0.68183327 21 3 0 0 7 7 1 12 104 21 4 5 2 1 1 36 40 22 16 63 31 7 2 7 110 17 3 7 21 9 7 29 36 4 0 2 14 4 0 5 131 14 0 2 7 14 17 71 56 11 2 14 100 87 22 21 131 57 13 21 36 5 0 6 43 3 0 2 16 88 25 3 131 17 0 3 19 5 2 29 50 9 1 21 131 18 3 21 56 36 10 13 30 19 13 64 23 0 3 17 131 131 23 16 131 0 0 1 33 13 4 96 55 0 0 9 131 11 2 24 105 4 0 4 28 15 6 43 2 32644
-0.0008998639 0.018335663 0.67141896 25 1 3 24 109 2 0 4 128 11 2 3 29 17 7 53 58 6 0 2 126 80 9 28 64 7 0 5 122 11 2 25 33 2 0 23 85 2 0 4 128 34 8 13 26 5 0 28 60 26 24 81 128 29 2 13 46 36 51 45 109 19 1 12 11 11 5 45 33 0 0 1 73 107 110 60 4 0 0 3 6 27 127 128 23 0 0 0 1 27 128 90 11 0 0 0 0 0 8 54 19 0 0 0 0 4 36 46 9 0 0 0 0 0 17 48 22 2 0 0 0 0 6 12 15 1 0 0 2 32644
0.033198617 -0.18108998 0.57348686 11 11 10 34 44 5 1 6 69 5 3 25 24 1 2 67 83 7 4 14 8 1 1 19 42 0 0 56 86 0 0 8 18 20 33 44 18 15 19 29 64 41 28 36 4 18 41 37 112 17 14 34 11 6 4 9 45 2 0 105 112 0 0 6 65 38 13 11 11 15 39 107 25 16 18 38 49 105 112 73 93 33 11 49 49 42 9 5 53 7 5 112 112 0 0 22 37 112 66 6 0 0 0 5 11 61 112 100 23 5 1 4 12 51 34 76 30 2 0 0 90 3 4 58 50 0 0 62 2 32644
0.033198617 -0.18108998 0.57348686 0 0 87 70 0 0 115 54 0 0 44 38 3 6 115 65 0 0 11 25 27 23 115 25 0 1 3 30 28 27 34 3 0 0 38 61 1 1 102 45 11 2 52 115 7 12 56 17 73 13 15 50 19 29 76 78 4 2 2 12 83 115 79 15 1 3 53 55 5 6 16 6 14 8 46 71 24 47 37 3 101 115 77 29 11 14 11 25 8 35 72 109 115 47 11 6 0 2 63 38 2 3 44 7 1 3 56 39 9 17 49 31 16 36 32 19 16 42 28 21 15 15 24 20 12 28 20 22 1 32644
-0.10184897 -0.13333282 0.67539674 7 1 1 7 58 68 17 19 6 30 27 7 14 96 119 11 15 31 23 11 21 40 58 30 12 2 0 3 21 64 20 10 5 7 13 48 72 24 4 4 13 11 52 101 32 15 30 6 43 29 38 49 33 14 19 8 11 30 18 59 48 13 6 4 2 9 11 15 55 152 53 2 13 8 9 30 73 133 20 4 69 26 29 88 58 24 2 9 13 50 29 121 72 7 5 4 0 0 0 0 2 152 32 0 0 0 0 0 64 152 15 0 1 2 8 30 95 108 17 1 5 2 1 18 16 28 66 16 2 32644
0.046368677 0.078287631 0.67079473 4 1 0 39 56 0 0 0 2 2 2 66 93 0 0 1 77 3 2 38 82 8 1 26 15 0 0 41 121 121 39 5 1 1 1 59 88 0 0 0 11 9 11 121 121 5 1 3 121 44 14 39 28 9 1 18 18 5 4 7 24 121 61 1 0 2 27 76 83 0 0 0 9 4 46 40 121 47 19 17 91 15 61 17 11 13 18 54 8 4 99 35 1 1 0 0 0 2 32 39 121 40 0 0 0 25 118 28 22 28 2 1 1 9 106 44 1 1 2 2 1 4 82 29 5 4 0 0 1 32644
0.089352757 -0.1686856 0.61849207 1 1 17 3 0 0 92 84 60 3 5 0 0 0 112 159 167 1 0 0 0 0 10 117 44 0 0 0 1 3 1 7 7 6 41 5 0 0 74 90 69 33 52 1 0 0 60 72 167 16 3 0 0 0 5 46 47 0 0 0 3 4 0 5 12 7 26 4 0 1 80 83 72 8 14 5 7 14 92 53 167 4 0 0 1 2 4 26 46 0 0 0 6 1 0 2 27 23 9 2 0 1 12 26 53 4 9 21 11 11 10 8 167 1 0 2 2 1 0 15 32 0 0 0 4 1 0 2 1 32644
-0.017157691 0.024280317 0.6835649 10 2 0 0 0 2 20 72 34 2 0 0 4 16 27 41 158 22 0 0 0 0 0 41 158 103 0 0 0 0 0 12 32 16 4 2 5 5 23 82 34 9 3 3 64 41 14 19 158 16 0 0 5 3 1 49 158 95 0 0 0 0 0 16 59 40 7 5 6 1 0 2 26 19 7 7 25 11 19 31 146 17 0 1 2 2 7 70 158 52 0 0 0 0 0 7 53 21 3 2 2 5 3 4 30 38 9 5 2 6 4 8 128 29 4 2 0 0 1 11 158 30 0 0 0 0 0 9 2 32644
-0.0076605864 -0.18319352 0.59536272 1 1 139 129 0 1 6 14 4 21 139 69 2 4 2 1 15 34 139 107 55 6 0 1 139 85 4 37 41 8 0 1 30 7 88 47 3 11 20 35 34 18 49 14 38 66 14 12 139 35 15 2 23 26 3 12 139 63 0 1 51 48 2 2 50 10 0 0 25 22 11 14 46 11 0 0 45 58 8 17 109 17 0 0 12 20 5 56 74 36 0 0 76 57 0 4 30 15 0 2 48 9 0 1 39 28 2 5 36 7 1 1 35 67 4 3 18 2 0 4 17 43 4 0 62 19 0 0 2 32644
-0.0076605864 -0.18319352 0.59536272 60 0 0 39 133 0 0 18 43 0 1 17 56 17 0 14 15 0 1 11 51 15 3 24 14 0 0 8 44 8 3 20 94 3 1 54 133 0 0 9 41 6 11 116 49 1 0 3 72 13 14 45 28 2 0 8 33 1 0 19 52 0 0 16 57 2 2 33 92 15 28 49 28 5 3 57 93 50 25 5 90 24 13 27 23 7 9 8 23 13 24 39 25 2 2 4 64 1 0 3 28 48 111 133 3 1 0 1 13 133 133 7 8 11 8 8 3 101 133 2 0 4 18 15 3 44 133 0 1 32644
0.070781 0.076011725 0.67910099 9 2 2 5 7 12 13 7 26 4 4 2 5 5 77 59 3 11 7 0 1 1 119 50 2 5 0 0 0 5 119 10 18 2 1 3 15 69 98 33 52 19 54 31 20 16 33 38 24 110 73 7 0 0 21 17 6 110 15 0 0 1 36 6 30 12 3 57 74 20 18 12 23 10 19 104 86 8 4 1 97 34 25 49 3 0 0 11 5 117 119 59 2 0 0 2 11 24 13 101 62 3 2 1 47 9 11 65 35 1 1 16 57 7 12 119 96 0 0 8 0 79 119 119 45 0 0 0 1 32644
0.070781 0.076011725 0.67910099 13 122 53 3 2 3 6 11 7 117 63 11 5 7 26 12 0 7 23 87 83 35 14 1 2 6 8 22 19 8 6 2 12 45 15 1 2 33 57 8 25 117 52 5 1 4 32 10 52 34 24 27 35 37 44 18 3 4 5 8 68 48 30 4 46 125 59 0 0 10 39 5 36 36 0 0 0 25 88 37 65 4 0 0 36 17 29 112 4 1 1 10 125 25 3 8 125 104 7 0 0 0 1 125 74 22 0 0 0 2 10 125 1 0 0 11 67 6 13 96 1 0 0 30 125 3 1 2 2 32644
0.039420024 -0.1029605 0.59969437 0 0 12 41 21 25 83 4 6 6 18 50 10 22 68 3 118 17 8 4 0 2 43 73 29 0 1 11 29 12 15 36 0 2 56 81 72 10 0 0 37 16 32 78 17 2 1 4 133 24 6 4 4 0 0 18 53 3 6 55 101 3 0 5 0 4 23 28 133 39 0 0 65 55 36 21 18 3 3 28 133 14 0 2 5 0 1 56 43 5 2 19 133 17 0 1 0 2 3 12 133 133 28 0 110 56 9 9 19 56 62 33 133 21 1 3 3 0 5 42 16 3 2 26 87 7 0 1 2 32644
-0.050369099 -0.20445055 0.61217237 11 25 11 0 0 0 0 2 66 113 46 5 2 2 1 7 3 8 127 32 8 13 2 1 0 7 131 22 4 4 1 0 17 2 0 0 0 0 0 8 132 13 1 1 1 10 9 44 16 1 4 5 16 108 29 12 0 1 11 11 16 45 80 18 5 7 0 0 0 0 0 0 132 91 0 0 0 2 5 17 79 22 6 0 3 52 127 44 1 1 21 4 1 13 132 74 0 4 0 0 0 0 0 0 97 132 25 0 0 0 0 1 55 132 132 8 0 0 13 11 1 3 132 56 0 0 13 8 2 32644
0.071902268 -0.19374479 0.58584803 1 1 9 10 1 5 110 47 3 6 16 6 1 2 99 76 0 1 38 21 2 8 118 22 1 1 40 13 1 3 92 11 12 5 53 23 1 3 18 15 52 5 15 7 1 8 47 104 4 1 14 9 11 118 86 34 2 0 10 3 1 28 79 118 16 3 7 0 3 27 118 69 118 28 0 0 7 28 29 47 38 12 1 0 16 67 53 50 21 5 5 1 1 13 75 118 1 1 9 24 53 53 98 35 58 46 28 35 77 44 9 2 35 64 118 21 0 0 4 14 21 37 118 32 0 0 1 24 1 32644
0.071902268 -0.19374479 0.58584803 32 1 2 59 7 0 4 117 7 0 2 49 15 2 18 115 48 1 2 33 7 3 28 44 66 0 0 1 0 0 30 117 44 3 6 13 9 2 5 101 68 11 6 22 6 4 46 82 50 4 0 1 1 32 117 84 117 15 6 9 0 1 13 90 14 8 7 56 17 1 4 24 102 117 7 4 1 2 11 34 25 117 17 5 1 12 23 21 38 33 69 117 4 0 3 14 28 2 5 32 2 0 0 65 38 18 1 0 1 27 75 117 3 68 36 19 39 85 43 7 0 9 49 117 39 3 0 0 1 32644
0.009951272 -0.17414436 0.58675814 2 1 0 1 76 39 0 1 126 30 0 0 4 3 0 15 126 25 0 0 45 25 1 16 45 13 4 2 57 29 1 8 1 1 1 11 116 52 2 1 100 76 4 1 11 8 0 7 126 100 0 1 41 14 0 10 22 17 7 7 126 24 0 3 2 1 0 2 77 126 9 2 92 16 1 2 45 56 1 22 126 62 7 10 28 3 0 34 29 15 4 21 126 20 1 2 9 5 0 20 126 27 0 1 35 21 0 15 89 12 0 2 126 97 5 3 3 2 1 7 30 10 3 5 32 64 11 11 3 32644
-0.022068057 -0.17617273 0.60395992 0 0 0 16 120 0 0 0 25 0 1 4 3 0 0 22 58 0 0 0 0 4 82 120 2 0 0 0 0 80 120 20 0 0 0 14 120 1 0 0 81 5 0 1 3 1 1 27 120 75 17 0 0 2 19 78 20 46 67 2 2 68 65 16 9 0 0 14 119 0 0 4 93 2 0 1 1 0 16 120 70 44 21 0 0 33 96 109 4 56 82 1 1 23 55 3 15 3 0 1 95 4 0 2 120 74 7 0 1 0 3 36 49 76 74 2 0 26 42 24 0 18 49 6 6 34 62 2 3 32644
-0.018067557 -0.17474653 0.60268718 14 0 1 0 1 5 78 90 1 0 0 0 11 92 117 18 2 0 0 0 1 25 117 75 0 0 0 0 12 63 97 17 117 14 0 3 10 5 19 60 24 3 0 16 117 60 31 17 117 10 0 4 19 17 52 89 13 2 0 20 117 67 38 17 117 44 3 4 9 3 0 2 30 10 5 33 112 28 1 5 117 23 2 12 26 6 1 11 18 5 2 57 117 0 0 0 105 77 7 6 2 1 1 2 15 25 14 58 38 21 4 2 39 83 39 16 12 7 1 3 4 13 22 37 91 18 5 4 3 32644
-0.0083663138 -0.17232008 0.59742242 41 93 1 0 10 39 6 7 18 77 10 7 85 88 0 0 0 0 2 6 98 114 25 1 0 0 0 0 2 42 48 3 9 35 15 15 76 68 6 1 12 83 114 39 33 20 7 1 70 13 42 34 38 53 63 40 10 2 0 0 20 114 89 16 22 105 37 16 35 18 21 6 13 14 23 7 14 97 106 11 110 78 13 2 8 35 30 25 26 81 5 1 17 109 6 5 27 114 10 0 0 2 3 2 16 114 33 3 8 30 15 3 15 37 6 1 18 89 27 3 32 81 17 3 7 21 6 2 1 32644
-0.0083663138 -0.17232008 0.59742242 3 0 0 2 2 1 57 116 13 10 13 23 22 9 66 116 20 37 87 38 3 0 10 44 1 1 42 69 3 3 34 31 11 2 23 45 8 2 35 100 18 4 19 116 68 12 14 16 106 26 33 26 8 2 20 95 8 7 59 23 0 1 67 95 3 0 26 76 11 3 39 53 10 0 11 29 24 52 116 62 62 37 61 57 45 40 42 20 5 10 116 116 4 0 1 4 7 2 21 28 1 1 48 64 1 0 70 116 12 11 27 32 0 0 33 116 82 13 4 0 0 0 20 45 21 3 0 0 1 32644
-0.01262416 -0.17200238 0.60066247 15 67 18 2 12 34 4 0 12 44 20 3 12 103 27 4 0 2 6 3 42 121 14 0 7 27 1 0 8 76 7 0 5 20 20 25 99 62 10 1 11 100 101 12 15 9 28 8 52 33 35 8 28 95 36 21 5 2 0 0 12 121 51 6 33 48 55 32 48 8 28 26 30 17 4 1 14 84 121 41 99 76 5 1 13 46 21 20 20 53 4 0 32 121 10 5 81 121 18 1 0 0 1 4 95 91 0 0 17 67 9 7 11 41 5 6 56 121 1 1 32 86 38 22 15 18 1 0 1 32644
-0.01262416 -0.17200238 0.60066247 107 40 11 2 1 4 6 45 25 28 82 74 19 11 3 9 59 9 15 33 19 3 2 51 21 3 6 75 47 3 1 21 27 2 1 11 18 25 32 114 27 6 14 25 99 94 22 15 114 27 9 21 17 9 6 27 9 6 4 114 114 2 0 4 5 1 4 108 46 2 8 71 24 0 2 65 60 13 38 67 25 8 4 46 84 26 57 51 2 2 3 114 114 2 0 2 22 22 55 76 20 0 0 25 57 2 3 31 12 1 5 103 8 0 1 114 114 7 7 14 7 0 0 57 79 1 0 18 1 32644
-0.020927133 -0.17308241 0.60516596 1 0 0 12 112 1 0 1 85 8 0 0 2 0 3 40 116 72 36 0 0 9 26 51 2 28 57 3 2 68 50 2 16 1 0 10 116 1 0 6 116 15 1 0 1 3 28 116 38 39 32 1 0 50 113 59 1 32 61 9 8 42 56 2 16 7 0 1 116 5 0 1 116 116 42 0 2 1 2 14 19 116 116 2 0 16 27 6 0 25 116 27 16 37 27 1 0 2 1 1 113 5 0 0 3 37 27 1 3 1 5 8 1 37 109 0 0 1 27 11 0 13 116 8 0 8 19 0 2 32644
