# .PCD v0.7 - Point Cloud Data file format
VERSION 0.7
FIELDS x y z descriptor multiplicity pointId
SIZE 4 4 4 4 4 4
TYPE F F F F I I
COUNT 1 1 1 128 1 1
WIDTH 137
HEIGHT 1
VIEWPOINT 0 0 0 1 0 0 0
POINTS 137
DATA ascii
0.00053142855 -0.14508 0.55800003 14 0 0 13 153 5 0 0 153 7 0 0 59 3 0 2 111 2 0 0 2 0 0 9 7 1 1 8 54 7 1 2 13 0 0 3 153 13 0 0 153 7 0 0 78 5 0 7 133 3 0 0 2 0 0 16 8 1 0 0 63 12 0 1 8 2 2 7 153 13 1 1 153 15 0 0 81 8 2 12 133 8 0 0 1 0 0 13 5 2 0 6 57 3 0 1 2 1 2 2 73 74 30 6 113 2 1 0 23 36 57 99 59 1 6 1 2 1 2 38 0 0 5 3 30 12 2 1 1 0
-0.010097143 -0.14508 0.55800003 5 0 0 3 149 0 0 0 149 2 0 1 82 0 0 3 98 1 0 0 0 0 0 3 3 0 0 6 9 1 0 1 7 0 0 1 149 0 0 0 149 3 0 0 103 0 0 5 114 4 0 2 2 0 0 9 3 1 1 7 4 1 2 1 7 0 0 8 149 0 0 0 149 11 0 1 101 0 0 1 112 20 0 1 1 0 2 6 3 1 0 2 5 4 16 7 5 0 1 19 149 1 0 0 149 1 0 1 71 1 0 3 118 2 0 0 0 0 0 10 11 0 0 5 19 2 4 7 1 0
0.0037400001 -0.14372286 0.56099999 5 6 5 6 57 5 0 0 53 5 0 1 144 33 0 1 144 23 0 0 17 3 0 4 50 4 0 0 4 1 0 5 4 23 13 5 37 3 0 2 40 5 1 3 144 50 5 5 144 31 0 0 30 10 5 26 63 6 0 0 4 0 1 13 6 8 6 1 8 10 31 28 7 0 7 2 76 144 82 20 118 3 10 1 7 27 76 137 32 1 23 5 3 1 2 22 0 0 116 11 0 1 11 5 0 0 144 17 0 15 19 2 3 2 144 13 0 3 17 15 1 1 144 17 0 0 0 2 1 0
0.0037400001 -0.14372286 0.56099999 0 0 0 2 2 7 134 2 0 3 16 17 3 17 145 0 1 15 16 2 0 11 145 2 0 1 5 1 0 10 136 0 4 1 3 27 27 1 11 2 8 26 69 145 107 2 7 0 80 143 74 21 6 1 10 3 7 13 39 20 5 4 15 1 2 0 1 17 75 2 0 0 46 7 5 43 145 0 0 2 145 24 5 6 28 1 1 26 22 2 3 5 6 27 8 7 1 0 0 16 71 1 0 0 51 0 0 24 145 0 0 1 145 0 0 2 22 0 0 14 25 0 0 0 9 10 7 8 1 0
0.0048257145 -0.13672857 0.56300002 0 0 25 8 2 3 144 89 37 12 9 7 4 3 144 144 68 22 2 1 98 27 9 72 0 0 0 0 144 59 0 0 0 0 14 34 25 14 47 9 17 26 14 63 36 9 16 8 101 67 8 5 72 20 2 12 5 1 0 0 144 77 0 0 1 1 22 27 10 12 61 17 10 2 2 15 20 43 81 25 88 9 0 1 38 12 18 53 7 1 0 0 144 76 0 1 0 0 1 4 6 10 44 7 2 0 0 1 21 41 25 2 40 6 0 1 13 13 9 10 8 1 0 0 144 60 1 1 1 0
-0.012310476 -0.13541524 0.56199998 38 1 0 5 3 0 7 38 11 18 15 31 10 0 0 3 19 52 10 1 0 0 0 3 3 7 3 37 75 0 0 0 6 12 58 38 8 0 3 7 14 31 47 127 33 0 0 0 117 98 23 9 1 0 0 4 20 6 1 80 153 0 0 2 0 11 89 41 7 10 15 2 57 10 28 84 22 9 8 16 153 11 2 7 5 0 1 36 23 1 0 131 153 0 0 2 0 1 2 2 3 35 78 2 21 2 1 3 5 32 86 56 84 3 5 9 10 0 11 76 7 1 2 153 153 0 0 1 1 0
-2.6410143 -1.0749857 4.645 13 13 0 0 0 0 0 2 110 53 0 0 0 0 0 1 158 21 0 0 0 4 10 32 64 0 0 0 2 80 81 34 9 2 0 0 0 0 0 8 150 28 0 0 0 0 0 4 158 22 0 0 0 0 0 23 138 15 0 0 7 14 2 13 4 14 4 0 0 0 0 1 149 12 1 0 0 0 0 20 158 17 0 0 0 0 0 35 119 38 0 0 2 1 0 1 7 6 3 0 0 0 0 6 127 4 1 0 0 0 0 95 158 8 0 0 0 0 0 83 101 12 0 0 1 0 0 23 1 0
-0.012354285 -0.12837714 0.56400001 16 5 0 1 143 30 0 0 143 63 0 0 40 5 0 7 99 49 0 0 0 0 0 11 23 9 2 5 10 1 0 1 14 3 0 1 143 32 0 1 143 13 0 0 76 10 2 68 92 6 2 2 1 1 12 89 20 4 10 28 38 0 0 4 9 9 8 22 143 17 0 0 143 49 1 2 92 8 0 9 82 31 23 58 7 1 4 11 1 2 63 78 23 1 1 1 2 6 9 47 124 2 0 0 143 45 2 5 66 3 0 6 58 32 11 33 12 12 18 13 1 1 14 21 9 13 52 10 1 0
-0.33428571 -0.23554286 1.08 0 0 0 0 20 32 23 1 71 32 0 3 78 28 2 0 152 50 0 0 2 8 6 15 15 0 0 0 1 66 15 8 0 0 0 0 15 58 35 0 64 12 0 0 98 126 10 6 152 41 0 0 7 14 9 26 64 2 0 0 3 73 33 14 0 0 0 0 1 28 115 3 15 0 0 0 17 152 98 19 152 14 0 0 2 35 53 92 91 17 1 3 13 17 4 5 0 0 0 0 0 3 112 9 0 0 3 2 1 50 148 7 43 3 6 6 2 22 91 54 36 9 26 7 1 1 2 10 1 0
-0.039489523 -0.11955047 0.56800002 0 0 0 0 0 8 149 2 0 0 0 1 1 17 149 2 1 1 1 0 0 10 149 5 0 0 1 0 0 19 149 1 0 3 33 13 2 5 114 1 3 8 23 85 18 18 114 1 50 42 16 15 7 6 121 13 11 15 16 52 40 15 105 4 0 3 71 23 3 0 0 0 21 4 18 75 35 3 0 4 145 15 4 10 28 0 0 16 35 12 6 44 149 0 0 1 1 3 5 7 5 0 0 0 22 1 1 5 27 5 1 5 118 0 0 4 32 1 0 13 29 1 0 20 149 0 0 1 1 0
-0.039489523 -0.11955047 0.56800002 5 11 1 1 41 72 0 0 11 30 4 1 10 20 1 1 18 10 1 0 0 1 8 42 2 0 0 1 0 0 18 68 37 97 0 0 27 79 0 0 24 15 2 0 45 112 5 4 132 15 4 6 1 5 8 51 12 1 30 106 0 0 10 35 91 141 0 0 5 41 8 8 33 25 5 28 20 112 32 10 49 5 63 141 3 16 22 29 5 2 94 141 0 0 0 0 42 16 12 39 3 48 48 25 25 11 77 141 4 6 4 6 0 0 79 141 2 2 1 0 0 0 30 118 1 1 2 0 1 0
0.28454572 -0.18436857 1.119 23 164 0 0 0 0 0 0 185 83 0 0 0 0 0 9 110 1 0 0 0 0 0 11 1 0 0 0 17 3 0 0 47 71 4 3 1 0 0 2 185 96 1 0 0 0 0 11 148 10 1 0 0 0 0 4 1 2 1 8 17 1 0 0 83 5 1 5 3 0 0 5 185 5 0 0 0 0 0 42 120 14 2 0 0 0 1 14 2 3 1 5 18 1 0 1 85 1 0 3 5 0 0 5 185 0 0 0 0 0 0 39 78 0 0 0 1 1 1 20 0 0 0 0 16 4 1 2 1 0
0.0084285717 -0.065742858 0.58999997 52 0 0 2 15 0 0 2 147 1 0 0 2 0 0 7 41 3 1 6 32 0 0 2 34 11 1 1 3 0 0 4 67 1 0 0 17 2 0 1 147 7 1 12 4 0 0 4 39 9 61 106 30 1 0 1 17 41 147 14 2 0 0 3 63 3 0 1 15 0 0 1 147 8 1 10 15 12 4 8 24 3 43 90 79 115 93 5 0 10 147 16 5 23 147 8 50 2 0 0 13 1 0 1 147 2 0 0 0 4 4 11 44 0 0 0 2 41 84 9 0 0 0 0 0 7 147 5 1 0
0.01182 -0.065854289 0.59100002 1 0 0 7 136 0 0 0 81 2 0 1 1 0 0 4 150 2 0 0 7 1 0 6 22 2 0 3 40 1 0 1 1 0 0 2 150 6 1 1 102 4 0 0 1 1 1 2 150 5 1 9 10 0 0 5 25 4 34 63 40 0 0 1 0 0 0 8 150 2 0 0 95 5 1 1 1 1 1 2 150 12 1 20 27 12 2 3 14 3 60 124 92 76 54 1 0 0 0 2 128 4 0 0 72 6 0 1 2 0 0 0 150 5 0 0 4 10 5 6 23 0 0 0 12 65 94 4 1 0
-0.33360001 -0.11543619 1.112 0 0 0 0 1 27 109 12 93 10 0 0 4 17 47 46 153 15 0 0 3 30 35 69 5 0 0 0 12 107 40 5 0 0 0 0 3 56 40 0 91 18 0 0 22 72 24 6 153 33 0 0 4 28 11 36 32 1 0 1 23 150 26 13 0 0 0 0 0 22 153 8 33 1 0 0 2 136 119 29 153 41 9 5 3 20 28 67 41 22 25 52 43 29 3 3 0 0 10 7 2 12 47 1 3 0 8 14 8 46 28 7 48 36 46 9 1 7 11 18 4 14 96 43 1 0 0 0 1 0
0.01208 -0.030487619 0.60399997 1 0 0 1 160 7 0 0 98 2 0 0 2 1 0 1 160 3 0 1 11 0 0 1 14 4 1 6 33 2 0 1 0 0 0 2 160 4 0 0 120 1 0 1 4 1 0 4 160 3 0 0 15 1 0 3 21 1 0 0 48 5 1 3 0 0 0 5 160 1 0 0 119 5 0 1 4 0 0 7 160 5 0 0 14 1 0 8 21 2 0 3 52 3 0 0 0 0 0 2 160 5 0 0 92 10 0 1 3 0 0 0 160 11 0 0 10 1 0 1 17 1 0 2 41 5 0 1 1 0
-0.048140001 -0.02262 0.60900003 0 1 20 55 0 0 3 28 34 45 53 25 0 0 1 9 28 7 1 0 0 0 11 30 0 0 0 0 0 0 9 20 10 9 28 152 8 0 0 3 152 86 42 49 1 0 0 6 122 8 0 0 0 0 7 24 0 0 0 0 0 0 18 65 39 2 5 139 15 0 0 2 152 5 2 8 1 0 0 29 145 0 0 0 0 0 7 107 0 0 0 0 0 0 21 115 30 1 0 8 11 3 7 30 152 0 0 0 1 0 1 152 88 0 0 0 0 0 4 147 0 0 0 0 0 0 9 34 1 0
0.30417237 0.020863809 1.153 3 2 1 1 12 1 0 2 29 0 0 8 107 2 0 5 150 1 0 3 38 1 0 34 23 0 0 15 150 2 0 4 8 0 0 1 19 1 0 3 52 2 0 14 138 1 0 2 150 2 0 3 48 0 0 15 25 0 0 5 150 14 1 2 6 0 0 4 26 1 0 5 58 2 0 21 135 1 0 3 150 9 0 3 42 2 0 9 24 2 0 2 150 17 0 0 4 0 0 4 30 1 0 2 49 2 0 12 110 0 0 1 150 8 0 2 24 1 0 4 20 1 0 4 145 7 0 0 1 0
0.091233335 0.018246667 0.833 53 1 0 1 0 0 0 8 38 14 41 25 1 0 0 5 8 40 45 9 32 3 0 1 1 1 0 3 62 8 0 0 62 1 0 11 17 0 0 5 33 32 63 150 114 0 0 2 150 129 57 33 20 1 0 3 15 6 0 4 67 6 0 0 41 6 2 30 45 0 0 2 87 7 3 117 150 1 0 9 150 15 2 9 26 2 0 34 24 1 0 3 67 7 0 3 11 3 2 69 53 0 0 0 89 4 0 105 141 0 0 2 150 22 0 2 12 0 0 5 19 2 0 4 56 3 0 0 1 0
0.33991906 0.04314762 1.105 0 3 1 0 40 78 0 0 70 102 1 1 22 28 0 0 128 120 0 0 25 19 0 0 8 3 0 0 119 66 0 0 0 0 0 1 58 49 0 0 59 27 0 0 74 79 3 8 128 84 0 1 21 6 2 24 32 5 0 13 128 18 0 1 0 0 0 1 28 23 1 0 20 0 0 0 35 67 43 74 128 3 0 19 21 5 14 128 19 0 0 80 128 0 0 4 0 0 0 0 3 8 42 16 3 0 3 8 1 5 42 115 18 1 13 119 11 0 3 68 1 2 8 115 45 0 0 0 1 0
0.34251428 0.052457143 1.08 0 1 3 16 18 0 0 0 26 0 0 20 125 4 1 17 157 1 0 2 17 2 1 116 74 2 2 60 62 0 0 21 0 0 1 18 32 1 0 0 67 1 0 17 96 13 1 14 157 5 0 1 12 4 0 61 60 1 1 23 156 16 0 9 0 0 0 3 25 6 0 0 43 1 0 0 33 41 14 16 157 63 0 0 3 5 5 20 73 30 0 6 128 89 2 2 0 0 0 0 8 4 0 0 7 1 0 0 2 7 8 8 93 123 1 0 0 1 2 6 52 157 1 0 12 57 3 0 1 0
0.0089999996 0.033 0.63 30 0 0 16 102 1 0 9 146 0 0 0 0 0 0 68 96 0 0 0 21 31 5 30 0 0 1 1 11 23 17 1 60 1 0 13 88 0 0 9 146 29 2 0 0 0 0 58 98 18 31 18 5 23 7 21 0 0 33 17 9 29 22 0 59 3 0 10 57 1 0 17 146 84 11 0 0 0 9 73 31 52 123 27 1 10 38 13 0 5 120 16 1 2 34 2 77 0 0 4 26 1 0 30 146 1 0 0 0 2 22 146 12 1 4 2 1 30 119 31 0 2 6 1 0 7 121 12 1 0
0.33526668 0.058085714 1.0700001 0 1 3 18 37 0 0 0 56 0 0 20 155 5 0 14 161 0 0 2 18 1 0 67 42 0 0 18 98 0 0 9 0 2 1 6 45 5 0 0 83 1 0 2 146 32 2 13 161 17 1 5 20 3 1 30 38 4 2 37 123 1 0 2 0 1 2 10 26 2 0 0 58 4 0 4 109 26 1 5 161 53 0 1 16 7 0 6 43 10 1 13 115 41 0 1 0 0 1 5 13 2 0 0 14 4 0 1 45 31 3 2 161 88 0 0 4 9 4 6 56 55 0 1 41 68 3 1 1 0
0.047665715 0.06047143 0.74699998 0 11 8 10 1 0 0 0 1 11 67 60 2 0 0 0 12 61 62 8 0 0 0 0 6 8 2 0 0 1 2 1 1 7 8 44 42 1 0 0 24 42 81 149 149 2 0 2 149 149 72 38 7 0 0 5 39 17 12 2 0 0 0 0 3 3 1 8 94 13 0 0 43 8 3 45 149 126 46 44 149 25 3 7 15 15 31 131 46 10 9 1 0 0 0 4 0 4 4 2 16 12 1 0 3 0 0 0 30 94 92 30 39 1 1 0 0 7 57 113 10 1 4 4 0 0 0 8 1 0
-0.065719999 0.061480001 0.74199998 0 5 10 6 1 0 0 0 0 19 59 40 4 0 0 0 6 74 40 5 0 0 0 0 1 14 12 0 0 0 0 0 0 3 11 16 27 1 0 0 18 38 50 141 141 10 1 3 141 141 39 22 10 2 1 11 27 23 3 0 0 0 0 0 1 12 54 5 26 6 0 0 20 6 32 26 141 105 25 33 141 34 37 3 11 19 20 106 31 17 69 1 0 0 0 3 0 5 141 10 1 0 0 0 1 4 141 35 10 12 5 4 11 35 141 6 0 3 4 10 1 8 141 12 0 0 0 0 1 0
-0.065719999 0.061480001 0.74199998 0 0 0 0 1 8 141 12 0 3 4 10 11 34 141 6 10 12 5 4 1 4 141 35 1 0 0 0 0 5 141 10 0 0 0 3 31 17 70 1 11 19 20 105 141 34 37 3 141 105 25 33 20 6 32 26 26 6 0 0 1 11 54 5 0 0 0 0 27 23 3 0 10 2 1 11 141 141 39 22 141 10 1 3 18 38 50 141 27 1 0 0 0 3 11 16 0 0 0 0 1 13 12 0 0 0 0 0 6 74 40 5 4 0 0 0 0 19 59 40 1 0 0 0 0 4 10 6 1 0
0.2773 0.096819997 0.98699999 0 0 0 4 22 1 0 0 36 13 2 11 96 1 0 0 163 59 1 3 19 0 0 1 30 7 0 4 122 4 0 0 0 0 0 17 27 0 0 0 54 3 1 32 121 0 0 2 163 9 0 4 22 1 0 11 50 1 0 4 153 4 0 2 0 0 0 12 44 0 0 0 61 3 0 24 120 0 0 3 163 5 0 3 20 0 0 14 50 1 0 10 153 1 0 1 0 0 0 7 39 0 0 0 53 1 0 7 99 1 0 5 163 2 0 1 16 1 0 14 36 0 0 7 123 1 0 1 1 0
0.27270856 0.10027429 0.98400003 0 3 77 13 9 0 0 0 17 93 106 20 25 0 1 0 96 147 16 2 24 33 5 0 5 5 0 2 87 59 1 0 0 0 1 7 28 0 0 0 60 21 4 25 107 0 0 1 147 70 2 7 30 1 0 4 25 6 0 16 147 5 0 0 0 0 0 23 29 0 0 0 85 2 1 44 105 0 0 8 147 4 0 6 31 0 0 40 24 1 0 17 147 1 0 3 0 0 0 17 41 0 0 0 94 1 0 27 74 0 0 13 147 1 0 6 31 0 0 38 11 0 0 19 116 1 0 1 1 0
0.26780668 0.10656667 0.97299999 0 67 77 1 0 6 7 0 1 112 69 0 0 60 44 0 7 47 6 0 1 124 77 4 27 9 0 0 6 73 34 15 0 10 19 14 6 0 0 0 27 121 66 37 14 0 0 1 124 124 13 2 18 52 5 3 12 3 0 2 107 85 5 1 0 0 1 43 20 0 0 0 93 10 4 73 33 0 0 38 124 20 2 21 23 1 0 75 13 2 0 46 124 5 0 1 4 0 1 75 18 0 0 5 113 1 1 34 10 0 0 124 100 0 0 51 34 0 0 94 1 1 1 64 47 0 0 0 1 0
0.25496954 0.11622286 0.94599998 0 0 1 8 3 0 0 0 3 5 14 49 7 0 0 0 92 16 13 15 1 0 1 55 27 0 11 56 5 0 15 79 0 0 2 24 15 0 0 0 40 11 10 122 74 0 0 1 151 21 9 25 16 0 0 40 43 0 5 103 129 6 2 11 0 0 0 29 54 0 0 0 84 15 3 88 146 0 0 1 151 39 2 9 27 1 0 9 30 4 0 8 151 24 2 1 0 0 0 24 73 0 0 0 72 5 0 30 139 2 0 3 151 36 0 1 12 1 0 3 32 7 0 1 107 22 0 0 1 0
0.11831047 0.085262857 0.69400001 14 0 0 6 69 1 0 3 181 0 0 1 19 0 0 54 162 1 0 1 0 0 0 21 1 0 1 1 1 0 0 0 27 0 0 2 71 9 1 6 181 3 0 0 13 3 1 57 165 2 0 0 1 1 0 18 2 1 1 1 1 1 0 1 27 1 1 2 47 7 0 2 181 35 0 0 10 3 0 7 163 20 0 0 1 1 0 2 1 0 0 0 0 1 1 2 12 1 0 0 24 8 0 1 181 36 0 0 7 3 0 2 159 22 0 0 0 0 0 1 1 1 0 0 0 0 0 0 1 0
0.36482856 0.092337146 0.67799997 4 0 0 0 0 1 3 6 148 6 0 0 0 0 0 8 202 20 0 0 0 0 0 0 39 4 1 1 1 0 0 1 8 1 0 0 0 0 0 5 159 11 0 0 0 0 0 5 202 37 0 0 0 0 0 1 60 4 0 0 0 1 4 7 8 5 0 0 0 0 1 4 145 5 0 0 0 0 0 9 202 19 0 0 0 0 0 3 81 2 0 0 0 0 0 5 5 0 0 0 0 0 1 7 98 11 0 0 0 0 0 3 202 33 0 0 0 0 0 1 73 4 0 0 0 0 1 2 1 0
0.018173333 0.095880002 0.65799999 1 0 0 43 142 0 0 0 142 0 1 13 68 0 0 35 109 0 0 0 3 2 1 27 0 0 0 0 12 21 3 0 9 0 1 50 142 4 0 0 142 5 2 14 57 2 0 31 105 5 1 1 4 4 2 27 0 0 0 2 16 7 1 0 6 0 0 5 142 142 15 3 142 27 0 1 31 48 47 49 72 44 15 5 2 1 8 14 0 1 17 14 7 2 3 0 0 0 0 0 18 142 36 1 12 1 0 0 1 57 142 41 9 5 2 1 0 14 108 24 0 0 5 2 1 23 68 0 1 0
0.095489524 0.10181333 0.66399997 0 0 0 0 6 13 2 0 112 2 0 0 14 12 1 9 209 2 0 0 0 0 0 25 45 0 0 0 0 0 1 7 0 0 0 0 6 28 17 0 142 5 0 0 27 23 1 6 209 18 0 0 0 0 0 9 59 3 0 0 0 0 0 1 0 0 0 0 6 43 28 5 123 5 0 0 39 59 4 6 209 30 0 0 1 1 0 6 63 5 0 0 0 0 0 1 3 0 0 0 13 10 5 8 70 8 0 0 76 31 1 1 209 49 0 0 4 2 0 1 59 6 0 0 0 1 0 1 1 0
-0.12322571 0.13158 0.73100001 25 20 35 4 3 11 66 32 154 50 5 0 0 0 7 60 81 14 0 0 0 2 1 3 0 3 1 0 0 19 4 0 31 51 89 7 3 5 10 5 154 137 14 0 0 0 1 7 127 19 0 0 0 0 0 1 1 6 4 0 0 1 0 0 22 2 1 0 1 27 154 31 154 7 0 0 0 3 71 137 127 5 1 0 0 0 0 14 0 3 2 0 0 0 0 0 3 0 0 0 0 8 154 60 28 0 0 1 3 11 140 92 22 1 0 0 0 1 3 20 1 1 1 1 0 0 0 0 1 0
-0.14399999 0.15771429 0.80000001 2 0 0 0 10 143 158 113 66 1 0 0 0 0 158 158 56 3 0 5 13 14 79 158 4 1 1 3 7 6 4 4 18 2 0 2 4 25 74 26 158 8 1 2 1 0 18 83 62 5 2 39 49 5 4 12 3 2 3 15 14 2 1 5 21 3 0 3 6 2 0 0 158 25 0 1 3 0 0 0 61 7 0 6 50 18 4 2 3 0 0 2 7 8 15 39 10 4 1 8 5 0 0 0 158 30 1 1 0 0 0 0 66 7 0 0 7 15 6 4 8 2 0 0 0 5 8 21 1 0
-0.095741905 0.17072856 0.70300001 6 27 24 25 25 0 0 0 13 131 50 1 0 0 0 0 6 131 15 1 0 0 0 0 0 12 8 7 8 0 0 0 0 5 48 110 54 0 0 0 10 118 131 51 8 0 0 1 78 131 61 1 0 0 0 1 9 78 43 4 1 0 0 0 0 0 1 77 131 1 0 0 67 15 19 61 44 0 0 21 131 86 14 1 0 0 0 49 61 84 33 0 0 0 0 3 0 0 0 47 131 2 0 0 95 0 0 17 25 0 0 55 131 1 1 1 1 0 0 74 78 4 1 1 0 0 0 26 1 0
-0.095741905 0.17072856 0.70300001 0 0 59 125 2 0 0 0 13 77 80 32 0 0 0 0 117 67 2 0 0 0 0 6 82 5 0 0 0 0 0 7 0 0 56 128 2 0 0 0 26 103 95 45 0 0 1 12 128 128 9 0 0 0 0 19 104 18 2 1 0 0 0 1 0 0 28 61 0 0 17 42 22 7 13 14 0 0 46 128 128 38 1 0 0 0 7 128 73 43 5 1 0 0 0 3 0 0 1 2 0 0 67 128 2 1 1 1 0 0 47 128 53 23 0 0 0 0 7 79 41 24 5 0 0 0 0 15 1 0
-0.13356 0.21553333 0.74199998 0 7 6 26 16 0 0 0 24 3 1 46 41 0 0 1 175 4 1 6 3 0 0 32 150 2 0 0 0 0 0 17 39 58 9 19 21 0 0 1 61 7 2 47 74 0 0 1 175 6 1 4 3 0 0 37 150 11 0 0 0 0 0 11 76 11 0 12 35 0 2 40 95 8 1 41 98 0 0 1 175 10 0 2 2 0 0 17 101 28 0 0 0 0 0 3 3 0 0 13 56 3 6 14 86 18 2 39 92 0 0 0 175 36 1 2 1 0 0 0 73 13 0 0 0 0 0 0 1 0
-0.11588571 0.21874286 0.72000003 3 0 0 24 82 0 0 0 155 1 0 12 33 0 0 33 155 1 0 0 0 0 0 24 66 6 0 0 0 0 0 2 9 1 0 22 127 0 0 0 155 4 1 10 40 0 0 24 155 8 0 0 0 0 0 14 71 15 0 0 0 0 0 0 13 1 0 17 138 0 0 0 155 16 0 5 40 0 0 3 144 32 0 0 0 0 0 1 58 24 0 0 0 0 0 0 9 2 0 11 119 0 0 0 155 31 0 6 31 0 0 0 111 30 0 0 0 0 0 0 37 26 0 0 0 0 0 0 1 0
-0.14213334 0.22394666 0.72799999 7 82 128 75 12 0 0 0 61 142 26 0 0 0 0 1 15 11 0 0 0 1 4 3 0 0 0 0 0 2 3 0 56 68 29 66 101 7 0 2 142 142 5 0 0 0 0 7 87 11 0 0 4 3 1 4 0 0 0 0 3 2 0 0 45 4 0 2 71 140 89 60 142 9 0 0 0 1 28 142 83 1 0 2 5 1 0 18 0 0 0 3 4 0 0 0 1 0 0 0 2 90 137 36 23 0 0 0 0 2 57 136 9 0 0 3 3 0 0 11 0 0 0 1 4 1 0 0 1 0
-0.11807143 0.22440477 0.72500002 0 0 0 12 48 0 0 0 42 1 1 28 111 0 0 3 169 1 1 3 8 0 0 36 74 2 0 0 0 0 0 9 0 0 0 14 69 0 0 0 78 2 0 21 165 0 0 2 169 11 0 2 9 0 0 16 69 15 0 0 0 0 0 3 0 0 0 9 78 0 0 0 83 5 0 21 164 0 0 0 169 25 0 2 7 0 0 0 62 26 0 0 0 0 0 0 0 0 0 5 69 0 0 0 56 11 1 15 144 1 0 0 169 40 0 2 6 0 0 0 47 23 0 0 0 0 0 0 1 0
-0.3651962 0.22780952 0.736 0 1 17 16 0 0 0 0 0 10 74 11 0 0 0 0 4 44 31 0 0 0 0 0 5 11 1 0 0 0 0 0 0 0 17 133 21 0 0 0 8 45 136 136 26 1 0 1 132 136 98 11 1 0 0 3 42 19 0 0 0 0 0 0 0 0 0 106 136 4 0 0 31 12 16 102 116 35 17 45 136 55 10 5 3 4 8 117 78 11 0 0 0 0 0 6 0 0 0 41 121 6 0 0 40 11 6 16 41 27 10 34 136 17 1 0 0 0 3 68 39 13 1 0 0 0 0 3 1 0
-0.10948 0.221 0.71399999 4 0 0 23 92 0 0 0 155 1 0 8 33 0 0 20 155 13 0 0 0 0 0 9 35 10 0 0 0 0 0 0 10 2 0 28 128 0 0 0 155 9 0 10 30 0 0 12 155 19 0 0 0 0 0 4 40 22 0 0 0 0 0 0 13 2 0 17 154 0 0 0 155 14 1 6 34 0 0 5 154 21 0 0 0 0 0 2 37 25 0 0 0 0 0 0 11 1 0 10 130 0 0 0 155 20 0 4 30 0 0 2 113 19 0 0 0 0 0 1 27 17 0 0 0 0 0 0 1 0
-0.10676 0.22508 0.71399999 8 1 0 30 99 0 0 0 163 5 0 10 22 0 0 20 140 11 0 0 0 0 0 10 31 15 0 0 0 0 0 0 20 1 0 26 149 0 0 1 163 3 0 7 27 0 0 27 146 13 0 0 0 0 0 8 40 20 0 0 0 0 0 0 28 2 0 22 157 0 0 0 163 9 0 5 23 0 0 7 125 18 0 0 0 0 0 1 38 19 0 0 0 0 0 0 23 1 0 8 136 0 0 0 163 14 0 2 19 0 0 1 94 17 0 0 0 0 0 0 23 17 0 0 0 0 0 0 1 0
-0.11130571 0.22602572 0.71700001 0 0 0 11 35 0 0 0 27 0 0 33 120 0 0 2 169 2 0 5 16 0 0 26 77 13 0 0 0 0 0 3 0 0 0 13 59 0 0 0 52 5 1 40 166 0 0 1 169 10 0 6 13 0 0 14 77 19 0 0 0 0 0 2 0 0 0 11 70 0 0 0 68 3 0 23 169 0 0 1 169 10 0 3 14 0 0 11 64 17 0 0 0 0 0 1 0 0 0 6 60 1 0 0 56 5 0 13 165 1 0 0 169 24 0 2 11 0 0 0 44 16 0 0 0 0 0 0 1 0
-0.098980002 0.22556667 0.70700002 8 0 0 26 112 0 0 0 159 2 0 9 29 0 0 22 130 8 0 0 0 0 0 8 29 11 0 0 0 0 0 0 17 1 0 22 158 0 0 1 159 3 0 5 32 0 0 17 143 13 0 0 0 0 0 4 31 18 0 0 0 0 0 0 19 3 0 20 159 0 0 0 159 21 0 6 27 0 0 3 131 21 0 0 0 0 0 1 30 15 0 0 0 0 0 0 15 2 0 7 144 2 0 0 159 21 0 3 25 0 0 0 105 18 2 0 0 0 0 0 23 12 1 0 0 0 0 0 1 0
0.074000001 0.22466667 0.69999999 14 0 0 3 138 4 0 1 153 2 0 1 23 1 0 27 106 1 0 0 0 0 0 29 32 0 0 0 0 0 0 18 19 0 0 1 153 18 0 2 153 4 0 0 25 4 1 18 152 2 0 0 0 0 0 13 53 0 0 0 0 0 0 15 19 1 0 1 153 13 0 2 153 5 0 0 25 3 0 13 150 2 0 0 0 0 0 7 66 3 0 0 0 0 0 2 12 1 0 1 125 24 0 1 153 21 0 1 21 4 0 8 114 6 0 0 0 0 0 5 41 6 1 0 0 0 0 2 1 0
-0.10360286 0.22955143 0.71100003 0 0 0 13 34 0 0 0 26 1 0 36 138 0 0 3 167 1 0 7 20 0 0 38 70 8 0 0 0 0 0 7 0 0 0 11 61 0 0 0 55 1 0 37 167 0 0 3 167 3 0 5 17 0 0 22 68 13 0 0 0 0 0 2 0 0 0 13 70 0 0 0 68 2 0 24 167 0 0 2 167 10 0 2 14 0 0 11 55 15 0 0 0 0 0 1 0 0 0 6 63 0 0 0 52 7 1 17 165 1 0 0 167 24 0 3 10 0 0 0 42 14 1 0 0 0 0 0 1 0
0.080239996 0.22858286 0.708 0 0 0 0 35 12 0 0 30 0 0 2 165 14 0 3 165 3 0 1 24 3 0 20 68 0 0 0 0 0 0 15 0 0 0 0 44 19 2 0 40 1 0 2 165 19 0 3 165 3 0 0 28 3 0 19 95 1 0 0 0 0 0 6 0 0 0 0 43 20 1 0 35 4 0 1 165 38 0 3 165 26 0 1 30 5 0 11 88 5 0 0 0 0 0 6 0 0 0 0 34 12 0 0 21 2 0 1 165 20 0 1 165 22 0 1 32 5 0 3 64 12 3 0 0 0 0 3 1 0
-0.25799143 0.23090571 0.71100003 0 1 55 79 0 0 0 0 13 25 101 30 0 0 0 3 72 18 20 3 0 0 0 46 40 6 29 16 0 0 0 58 19 24 122 122 0 0 0 1 122 98 83 14 0 0 0 21 117 19 69 30 0 0 0 48 11 11 119 51 0 0 0 4 60 18 46 76 0 0 4 45 122 122 77 1 0 0 0 14 46 97 122 24 0 0 0 4 35 26 38 12 0 0 0 17 10 10 25 9 0 0 5 35 38 53 32 0 0 0 0 89 87 37 14 0 0 0 0 116 45 3 0 0 0 0 0 69 1 0
-0.07041619 0.2362562 0.69099998 0 0 0 8 58 1 0 0 52 2 0 19 165 0 0 0 165 8 0 2 10 0 0 3 37 10 0 0 0 0 0 0 0 0 0 14 73 0 0 0 68 7 0 13 165 0 0 0 165 19 0 2 15 0 0 0 45 13 0 0 0 0 0 0 0 0 0 9 77 0 0 0 65 4 0 19 165 1 0 0 165 20 0 2 17 0 0 0 46 12 0 0 0 0 0 0 0 0 0 4 66 1 0 0 43 7 0 8 165 10 0 0 165 37 0 1 16 1 0 0 39 13 0 0 0 0 0 0 1 0
0.046657141 0.23591429 0.69 0 0 0 9 72 0 0 0 45 1 0 12 160 7 1 11 160 3 0 1 12 2 0 32 54 1 0 0 0 0 0 4 0 0 0 11 99 0 0 0 62 4 0 13 160 6 0 4 160 10 0 1 11 1 0 16 61 2 0 0 0 0 0 7 0 0 0 17 102 0 0 0 63 4 0 12 160 4 1 7 160 22 0 1 8 1 0 15 60 11 0 0 0 0 0 0 0 0 0 11 81 0 0 0 45 6 0 7 145 4 0 1 160 24 0 1 6 1 0 2 53 8 0 0 0 0 0 0 1 0
0.27916667 0.26607144 0.625 34 145 15 0 0 0 0 0 7 145 38 0 0 3 0 0 4 62 6 0 0 46 5 0 1 1 0 0 0 129 9 0 52 112 7 0 0 3 9 11 36 145 60 0 0 0 0 5 132 145 9 0 0 2 1 5 25 9 0 0 0 44 17 5 10 3 0 0 0 4 38 34 90 31 4 0 0 0 5 112 145 39 0 0 0 0 0 101 59 5 0 0 0 1 5 12 3 0 0 0 0 2 21 29 116 14 0 0 0 1 6 41 145 89 0 0 0 0 0 28 23 60 2 0 0 0 0 2 1 0
0.27916667 0.26607144 0.625 6 0 0 1 19 35 9 11 147 24 0 0 1 3 5 44 147 61 0 0 1 0 0 6 21 6 0 1 65 10 0 1 2 0 0 0 3 36 43 10 135 36 0 0 0 2 38 49 147 66 0 0 0 0 1 44 45 3 0 0 62 12 1 6 7 0 0 0 1 11 46 69 29 1 0 0 0 1 133 147 123 1 0 0 0 1 28 147 16 0 0 0 51 22 4 19 50 0 0 0 0 1 5 110 108 0 0 0 0 0 20 147 16 0 0 0 0 1 12 83 0 0 0 0 29 24 4 4 1 0
0.30011427 0.27158856 0.62400001 4 5 11 6 0 1 87 108 49 15 5 0 10 3 35 113 58 1 0 1 65 9 2 17 111 4 0 0 1 0 0 3 11 28 51 106 27 3 27 42 113 112 36 13 21 3 4 24 82 4 0 1 110 7 0 5 113 0 0 0 2 0 0 12 24 12 21 52 36 21 86 78 113 19 4 5 27 7 38 113 86 0 0 1 113 9 1 16 113 0 0 0 2 0 0 18 18 27 23 0 0 1 65 94 5 9 15 3 33 5 32 73 58 0 1 4 106 7 1 10 97 0 0 0 1 0 1 18 1 0
0.24622858 0.27102858 0.62 20 61 48 2 0 1 0 0 177 112 4 0 0 0 0 5 72 6 0 1 40 17 2 9 0 0 0 3 73 18 0 0 36 15 3 1 5 17 4 2 177 50 0 0 1 2 1 12 136 3 0 0 46 34 1 10 0 0 0 0 88 43 0 0 25 1 0 0 3 23 16 13 177 30 0 0 1 4 4 28 157 15 0 0 44 17 0 2 0 0 0 1 101 22 0 0 16 1 0 1 1 3 4 5 177 30 0 0 0 1 1 6 140 22 2 8 35 1 0 1 0 0 0 4 71 6 0 0 1 0
0.28875715 0.27118573 0.61500001 133 20 0 0 0 0 0 9 91 24 32 6 0 7 10 22 1 51 40 2 2 34 19 1 0 74 47 0 0 16 15 0 133 38 9 6 0 0 0 5 59 69 109 122 6 0 0 1 108 133 58 15 1 11 12 3 20 29 27 2 0 41 45 1 126 38 8 8 3 0 0 2 55 23 21 73 50 3 1 12 133 45 12 22 15 3 1 32 26 52 117 71 40 14 2 1 107 13 0 1 5 6 4 17 56 4 1 10 36 33 6 12 133 11 1 5 17 14 2 14 24 11 10 30 81 84 8 10 1 0
0.28757143 0.27362856 0.61000001 130 32 7 3 0 0 0 4 54 49 58 97 17 1 0 4 130 108 36 24 4 3 5 12 17 39 66 19 2 21 22 1 130 38 2 2 2 1 1 5 74 12 5 29 51 15 3 11 130 17 5 19 35 17 2 24 36 56 73 55 83 68 7 12 121 9 0 0 3 6 4 41 64 6 0 6 62 61 12 28 130 29 2 22 33 14 2 14 44 30 15 85 91 50 8 14 3 0 0 0 1 0 0 3 19 4 0 6 29 3 0 3 130 22 1 16 52 0 0 10 21 39 13 68 130 0 0 1 1 0
-0.30762857 -2.9600704 7.178 9 1 5 57 0 0 3 125 15 1 0 0 0 0 23 111 0 0 0 0 3 35 62 31 0 0 0 0 5 29 7 0 38 36 61 13 0 0 0 35 130 37 9 8 3 3 27 130 11 3 5 61 95 79 68 59 0 0 0 12 51 33 3 0 130 57 88 52 10 3 2 33 130 66 23 43 24 2 2 72 11 8 26 130 63 2 1 5 1 0 2 25 16 3 1 0 129 5 2 4 9 23 47 114 130 17 13 45 45 1 1 72 1 1 2 42 63 0 0 0 5 1 1 1 1 1 0 1 1 0
-0.21847428 -0.40432572 1.038 0 23 74 6 0 0 0 0 65 32 24 5 1 0 0 0 182 12 0 0 0 0 0 6 86 2 0 0 0 0 0 6 10 62 48 0 0 0 15 9 92 102 19 0 0 0 1 3 182 51 1 0 0 0 0 6 110 7 0 0 0 0 0 1 6 5 3 15 13 30 99 14 126 15 2 2 7 11 10 34 182 6 0 0 0 0 0 51 103 2 0 0 0 0 0 4 2 0 9 50 16 6 4 0 129 2 1 8 5 2 0 38 182 5 0 0 0 0 0 36 74 3 0 0 0 0 0 1 1 0
0.0026190476 -0.18909524 0.55000001 0 44 35 2 0 0 0 0 72 60 20 0 0 0 0 0 166 35 1 0 1 0 0 0 26 6 9 3 19 3 0 0 2 33 18 6 5 0 0 0 109 91 17 0 0 0 0 1 166 46 0 0 1 2 2 22 35 1 0 1 23 25 4 10 2 13 25 2 1 7 21 0 158 45 13 0 0 3 6 8 166 37 2 4 3 2 2 40 35 8 10 43 32 18 3 11 1 9 9 0 0 39 126 4 64 24 6 0 0 27 117 89 166 62 9 6 2 1 23 138 15 18 12 41 18 15 43 12 1 0
0.0067723808 -0.18598001 0.54699999 22 45 11 0 0 0 0 0 141 38 1 0 0 0 1 11 62 1 0 1 17 14 3 10 120 18 0 1 12 6 0 2 50 26 12 0 0 3 7 3 141 29 1 1 1 0 1 40 76 9 8 36 29 19 4 19 104 22 7 9 9 11 2 7 27 16 8 0 0 36 109 46 141 57 9 3 1 1 38 141 39 30 18 54 21 20 54 22 100 20 6 9 4 7 21 22 7 58 40 1 0 4 18 15 21 127 122 0 0 0 13 52 2 129 141 4 2 15 48 9 34 42 80 31 8 12 21 7 1 0
-4.5283313 -2.7451544 8.2119999 0 8 157 6 0 0 68 16 11 92 132 1 0 0 87 10 7 31 9 9 2 9 85 5 0 0 0 15 58 26 30 1 24 23 157 8 0 1 1 5 157 148 105 0 0 0 0 23 111 45 12 28 1 0 0 4 0 0 2 39 64 5 0 0 59 2 2 0 4 12 4 6 157 25 0 0 0 0 0 16 116 25 9 20 0 0 0 2 0 1 3 14 28 8 0 0 44 0 0 1 20 5 0 7 157 12 0 0 0 0 0 21 80 25 8 2 0 0 0 2 5 5 3 1 9 2 0 1 1 0
-4.6712179 -2.7001724 8.4130001 41 43 23 1 0 0 2 8 160 77 1 0 0 0 10 34 39 16 1 3 19 25 34 9 0 0 0 2 53 117 6 0 78 26 8 0 0 0 0 1 160 55 0 0 0 0 0 0 94 9 0 2 9 7 3 2 0 0 0 25 135 22 2 0 75 3 0 0 0 0 0 20 160 11 0 0 0 0 0 41 107 1 0 0 7 4 9 31 0 0 0 37 160 12 6 4 50 0 0 0 0 0 19 52 160 10 1 0 0 0 0 77 66 17 15 0 8 7 6 41 0 2 11 14 122 88 21 2 1 0
-0.039000001 -0.17524 0.546 16 121 36 0 1 12 1 1 8 121 89 22 9 12 6 1 16 13 24 28 51 104 50 14 1 2 0 0 3 121 85 3 2 52 12 0 3 46 14 0 22 121 46 2 0 32 7 2 121 106 9 3 1 8 19 33 25 2 0 45 52 93 53 14 2 121 28 0 1 21 7 0 29 82 26 0 2 52 13 9 121 100 40 20 2 4 5 25 18 17 38 121 46 1 0 5 0 19 8 0 1 44 11 0 2 113 36 0 0 30 10 0 7 121 53 11 2 4 2 1 0 14 28 60 13 17 1 0 1 0
-0.015107619 -0.17556095 0.54699999 23 2 7 30 6 0 0 18 58 2 2 4 2 1 4 66 33 1 0 5 6 2 22 122 30 0 0 8 52 16 14 117 51 1 0 10 11 1 2 67 72 15 9 12 1 2 16 54 122 25 3 5 1 0 15 110 33 4 2 115 122 6 10 49 38 1 0 0 2 1 12 122 21 2 2 3 2 3 91 115 122 20 33 45 5 0 28 71 18 8 17 122 122 0 0 0 52 34 5 2 1 0 1 33 28 58 26 5 11 8 8 31 3 7 62 107 76 8 2 4 0 1 23 122 46 0 1 1 1 0
-0.042119998 -0.1742 0.546 0 2 14 73 26 8 55 6 1 1 31 15 0 5 130 13 0 1 28 6 1 3 130 26 0 2 26 4 0 2 102 16 17 14 30 4 21 2 18 7 105 10 9 0 1 19 91 97 8 1 13 7 34 130 101 27 1 2 45 7 6 28 74 12 42 4 3 1 35 15 1 1 130 53 5 1 3 9 8 29 41 21 26 25 48 130 38 9 15 11 14 17 15 64 95 42 12 3 0 0 32 28 2 1 88 93 83 13 6 5 1 1 10 28 130 84 6 4 1 0 10 44 130 43 6 3 1 4 1 0
-0.033985715 -0.16992857 0.54900002 12 1 1 7 17 1 0 1 143 46 1 1 3 0 0 8 78 50 30 61 15 0 3 6 4 2 36 138 40 2 2 1 22 3 1 12 18 0 0 2 143 24 1 2 2 1 11 101 49 22 13 30 60 64 40 48 17 1 2 30 119 26 1 1 35 5 2 23 18 0 0 1 143 46 2 3 2 1 4 35 81 22 4 23 132 47 14 18 14 1 0 15 143 24 0 2 25 2 0 5 15 4 1 3 143 102 29 0 1 1 2 15 36 50 118 62 48 10 9 8 14 1 9 49 73 10 9 4 1 0
0.0068590478 -0.15670286 0.55400002 0 10 30 21 0 0 0 0 5 22 31 1 0 0 0 3 14 4 14 0 0 0 53 63 1 4 6 0 0 0 157 23 0 11 20 36 2 1 1 0 74 51 35 1 0 0 1 6 174 23 6 1 0 0 64 166 31 18 16 2 0 0 174 67 0 1 1 4 2 4 5 0 122 7 2 0 2 3 4 2 174 41 8 6 1 0 0 8 113 47 28 14 2 1 4 11 0 3 5 4 2 1 1 0 87 8 2 2 2 1 0 1 174 13 0 2 4 1 0 7 120 16 0 4 8 2 0 9 1 0
-0.0036933334 -0.15670286 0.55400002 0 4 4 2 1 1 1 0 140 9 1 1 2 1 0 0 185 18 0 2 3 2 0 6 105 12 1 4 4 3 0 10 1 4 3 2 2 2 4 5 162 10 2 2 0 1 6 10 185 13 0 3 15 2 0 7 126 31 0 8 25 5 1 7 1 0 0 0 0 1 10 21 128 1 0 0 0 0 11 40 185 31 0 0 6 6 1 15 103 14 1 1 11 14 9 42 5 0 0 0 0 0 2 16 96 4 0 0 0 0 1 16 185 16 0 0 0 0 3 43 54 9 6 1 0 0 12 39 1 0
0.0079428572 -0.15409143 0.55599999 1 6 65 3 0 0 0 1 2 2 65 3 0 0 19 20 2 11 48 1 0 0 71 14 1 5 36 5 0 1 64 6 24 36 30 2 0 0 0 2 168 16 5 0 0 0 70 149 20 7 6 0 0 0 168 86 3 2 0 1 2 2 168 28 57 11 5 0 1 2 3 1 168 42 7 4 0 0 4 25 110 57 38 14 1 0 32 24 51 17 2 16 30 2 44 12 40 5 2 1 2 1 1 0 168 23 0 2 2 1 0 3 139 18 2 5 6 3 0 9 65 7 0 5 51 2 0 3 1 0
0.0080142859 -0.14158571 0.56099999 29 0 0 0 47 3 0 2 145 1 0 1 4 1 0 2 47 5 8 27 40 11 3 4 11 19 18 4 2 2 5 19 37 1 0 2 59 0 0 1 145 5 1 6 5 1 0 3 54 4 52 87 47 17 4 5 9 14 145 15 2 2 3 15 34 1 0 0 56 5 0 3 145 5 1 7 14 8 2 10 41 2 42 93 100 118 79 5 0 1 145 21 8 27 145 2 25 1 0 1 45 7 0 2 145 5 0 0 0 3 2 8 56 4 7 1 3 56 67 6 0 1 8 1 0 18 145 1 1 0
-0.023015238 -0.13541524 0.56199998 41 1 0 0 2 5 28 27 17 3 0 1 26 20 33 11 104 14 0 2 29 1 0 1 19 1 0 4 207 1 0 0 102 11 0 1 7 1 1 7 23 4 0 11 99 9 3 3 129 16 1 5 41 1 1 7 24 3 0 8 207 1 0 0 112 12 0 0 5 1 0 1 16 3 0 2 48 28 15 14 54 1 0 2 33 6 13 55 17 1 0 9 207 0 0 2 78 16 0 0 0 0 0 8 16 8 5 4 3 4 4 6 9 13 4 3 24 1 3 14 8 1 0 8 207 0 0 0 1 0
-0.023015238 -0.13541524 0.56199998 207 1 0 0 7 1 0 6 23 1 3 14 9 14 4 3 3 4 4 6 16 8 4 4 0 0 0 7 78 17 0 0 207 2 0 2 17 1 0 6 32 6 13 55 54 1 0 1 48 28 14 14 16 3 0 1 5 1 0 1 112 13 0 0 207 3 0 0 24 3 0 6 41 1 1 6 128 17 1 5 100 10 3 3 23 4 0 10 7 1 2 7 101 12 0 1 207 2 0 0 19 1 0 2 31 1 0 0 103 15 0 1 26 20 33 11 18 3 0 1 2 5 28 26 40 1 0 0 1 0
0.25220191 -0.26697522 1.108 5 33 140 66 4 2 0 0 58 125 85 21 5 5 3 4 5 3 64 38 13 25 16 2 0 0 71 15 0 5 22 0 28 15 26 33 16 119 42 9 140 53 8 3 3 30 28 69 49 2 1 1 6 105 122 27 0 0 1 1 1 33 140 1 8 0 0 0 13 140 40 7 140 52 1 0 6 64 17 39 94 47 7 15 25 34 17 7 0 0 1 10 12 22 26 0 0 0 0 0 2 93 41 2 75 20 0 0 1 73 64 43 52 32 7 11 3 1 30 35 0 0 2 8 2 1 49 7 1 0
-2.4817572 -1.1015285 4.645 0 0 0 0 18 46 3 0 87 24 0 0 18 19 0 0 154 40 0 0 0 0 0 38 55 2 0 0 0 2 6 83 0 0 0 1 25 45 1 0 85 10 0 0 36 54 2 4 154 16 0 0 0 2 3 97 51 1 0 0 0 11 51 145 0 2 19 13 11 7 0 0 42 5 4 3 23 40 4 6 154 151 0 0 1 4 2 26 109 123 1 0 2 15 18 31 0 18 61 7 0 0 0 0 4 29 27 2 3 3 0 0 71 154 6 0 1 1 0 0 44 154 11 0 1 1 0 0 1 0
-0.0113 -0.12860475 0.565 3 2 1 13 132 0 0 0 132 23 0 4 104 0 0 30 132 23 0 2 1 0 0 29 15 15 11 10 3 2 2 5 7 7 11 37 132 1 0 2 132 10 2 8 109 2 0 84 76 7 30 34 4 0 0 69 12 26 39 88 18 0 0 1 10 10 16 92 132 1 1 1 132 47 7 25 58 1 2 16 41 21 52 73 10 14 23 7 21 7 26 60 10 7 39 14 13 0 0 34 127 7 1 2 132 3 0 6 23 2 5 43 37 1 1 3 6 22 62 20 3 6 10 13 8 8 65 15 1 0
-0.33634287 -0.24171428 1.08 47 10 0 1 13 28 63 39 138 22 0 0 1 11 67 80 7 0 0 0 0 56 115 13 0 0 0 0 0 15 74 6 44 12 0 1 52 91 13 3 138 45 0 0 7 21 14 31 54 1 0 0 0 98 77 19 0 0 0 0 0 31 117 2 9 0 0 0 6 128 124 13 138 9 0 0 1 42 69 100 100 10 4 1 5 41 23 12 0 0 12 5 1 21 67 6 0 0 11 9 1 20 125 7 30 4 27 20 3 17 83 43 24 10 82 30 0 1 2 8 0 0 90 47 0 1 4 1 1 0
0.28940475 -0.21784286 1.105 0 0 0 0 1 50 11 0 143 8 0 0 2 16 3 2 199 19 0 0 0 0 0 2 60 1 0 0 3 2 0 6 0 0 0 0 0 90 16 0 134 4 0 0 2 81 12 12 199 29 0 0 0 1 1 10 84 8 0 0 4 1 0 2 0 0 0 0 0 24 9 3 70 0 0 0 1 65 27 39 199 6 0 0 0 2 5 62 94 4 0 0 3 0 0 2 3 1 0 0 0 5 3 3 61 2 0 0 0 4 6 11 199 11 0 0 0 0 1 15 73 3 0 0 2 1 0 1 1 0
-0.045215238 -0.10949714 0.57200003 0 0 0 3 163 2 0 0 87 4 1 0 4 0 0 2 163 4 0 0 2 2 1 4 22 0 0 0 32 21 3 2 0 0 2 11 163 0 0 0 98 18 5 2 5 0 0 0 163 18 0 1 3 0 0 1 31 2 0 8 50 1 0 0 0 0 1 6 163 1 0 0 108 8 2 3 6 0 0 1 163 6 0 1 4 0 0 6 28 1 0 13 54 0 0 1 0 0 0 3 163 3 0 0 85 8 1 1 7 0 0 0 163 22 5 7 2 0 0 1 12 5 15 40 16 0 0 0 1 0
0.0038733333 -0.087980002 0.58099997 192 1 0 0 0 0 0 17 73 3 12 5 1 1 0 2 0 5 13 1 0 1 2 1 1 3 3 0 0 1 2 1 192 8 3 6 3 0 0 16 59 15 84 65 20 0 0 1 35 71 83 8 1 0 0 1 16 17 6 1 0 0 1 0 192 3 0 3 16 0 0 8 53 5 10 30 120 3 1 3 161 22 10 4 9 1 1 15 46 4 1 2 1 1 1 4 192 0 0 1 15 0 0 19 39 0 0 5 96 8 1 6 134 0 0 0 6 1 1 18 35 1 0 0 3 2 1 3 1 0
0.0038733333 -0.087980002 0.58099997 0 1 14 1 0 13 193 0 0 3 16 0 0 3 193 6 3 6 3 0 0 10 193 11 0 0 0 0 0 9 193 2 0 4 96 9 1 5 42 0 10 29 120 4 1 2 54 5 83 65 20 0 0 1 56 15 11 5 1 1 0 1 67 3 0 0 7 2 1 16 134 1 10 4 10 1 1 13 162 22 83 8 1 0 0 1 35 70 13 1 0 0 2 1 0 4 0 0 2 1 1 3 37 1 1 2 1 1 1 3 47 4 6 1 0 0 0 0 16 17 3 0 0 1 1 1 1 3 1 0
0.25469524 -0.14414667 1.138 6 18 133 33 4 2 1 0 66 84 99 24 9 10 3 6 4 2 101 41 16 31 9 2 0 8 121 6 1 4 12 0 22 6 18 16 11 88 61 9 133 27 6 4 6 55 36 84 34 2 2 3 17 133 113 21 0 1 6 1 2 41 133 0 7 0 0 0 12 133 45 5 133 78 2 2 10 63 16 29 65 52 10 29 60 57 17 5 0 0 0 5 15 25 40 1 0 0 0 0 3 58 63 5 49 25 1 0 2 60 89 35 29 26 8 14 6 3 50 33 0 0 0 3 3 7 59 4 1 0
-0.026275238 -0.069880955 0.58700001 7 1 0 1 152 24 2 0 152 6 0 1 54 2 0 12 70 1 1 0 0 0 2 17 1 1 1 0 0 0 4 2 10 0 0 0 152 35 3 0 152 4 0 0 89 5 1 26 83 1 1 2 20 6 3 23 12 2 1 1 4 2 5 11 8 1 0 0 152 21 0 0 152 21 0 0 106 7 0 3 105 7 0 2 49 2 0 3 46 2 0 1 11 2 1 8 3 1 0 1 152 14 0 0 152 25 0 0 100 6 0 0 95 10 0 1 38 3 0 0 41 6 0 0 10 1 0 1 1 0
0.0083999997 -0.071120001 0.588 33 1 0 0 133 4 0 0 140 11 3 11 4 0 0 0 27 18 67 40 9 1 0 0 10 16 122 11 2 0 2 1 35 3 0 1 140 4 0 0 140 14 2 12 11 15 10 10 19 5 59 45 27 66 140 10 0 3 104 7 0 2 140 17 31 1 0 0 140 8 0 1 140 5 0 0 2 2 5 8 60 1 0 0 0 11 73 10 0 0 0 0 0 0 79 8 23 0 0 0 140 4 0 1 140 5 0 0 2 0 0 1 60 2 0 0 0 0 0 1 1 0 1 0 0 0 0 1 1 0
0.0084285717 -0.065742858 0.58999997 49 0 0 2 20 0 0 2 148 1 0 0 2 0 0 6 43 3 1 5 31 0 0 2 34 11 0 1 2 0 0 4 64 1 0 0 23 2 0 1 148 5 1 9 3 0 0 5 44 9 50 82 29 0 0 2 25 38 137 10 2 0 0 5 60 3 0 2 21 1 0 1 148 9 1 14 16 10 3 6 25 5 60 115 81 95 75 4 0 16 148 18 5 18 148 7 47 2 0 1 17 1 0 0 148 2 0 0 1 6 5 12 42 0 0 0 6 57 103 10 0 0 0 0 0 9 148 7 1 0
-0.32939523 -0.12102381 1.105 60 4 0 0 0 6 83 99 138 8 0 0 0 28 81 126 3 0 0 0 0 107 115 11 0 0 0 0 0 13 101 5 71 11 0 0 1 52 36 9 138 32 0 0 1 25 18 39 39 2 0 2 14 138 62 14 0 0 0 2 4 29 112 1 17 0 0 0 0 65 131 21 138 45 14 3 1 15 34 62 46 29 54 71 32 27 5 2 0 0 41 50 9 10 8 0 0 0 12 21 6 21 27 3 23 24 52 17 2 5 9 11 3 12 114 52 0 0 0 0 0 0 71 35 0 0 0 0 1 0
0.00056190474 -0.064619049 0.58999997 1 6 17 60 88 7 34 1 55 108 48 36 22 1 27 6 15 26 27 0 0 1 41 4 0 3 22 1 0 1 31 4 10 2 2 17 154 17 0 0 154 33 5 12 104 8 2 25 71 6 3 0 0 7 44 30 0 1 2 0 0 5 39 13 8 0 0 0 154 23 0 0 154 28 0 0 131 11 0 5 117 15 5 2 1 6 13 8 0 0 8 2 0 2 14 3 3 0 0 0 154 17 0 0 154 40 0 0 117 11 0 1 83 40 28 2 0 0 0 1 0 1 37 3 0 0 1 1 1 0
-0.040949523 -0.064509526 0.58899999 52 1 0 0 34 3 0 3 154 29 6 16 8 1 0 1 20 10 101 113 26 4 1 0 0 13 154 17 1 1 5 0 53 4 0 0 49 5 0 1 154 21 0 7 17 22 5 9 31 2 24 46 61 142 115 6 0 2 65 7 1 16 154 6 43 3 0 0 61 6 0 1 154 23 0 0 2 5 3 4 75 4 0 2 40 50 42 4 9 3 1 1 7 7 76 10 24 4 0 0 64 6 0 0 154 30 0 0 1 0 0 0 75 8 0 1 42 8 1 1 9 1 0 0 8 4 5 16 1 0
-0.012901905 -0.064509526 0.58899999 31 2 0 0 164 25 0 1 164 45 3 0 41 5 0 4 21 15 31 4 0 2 2 4 1 1 26 2 0 1 3 4 28 2 0 0 164 32 0 1 164 6 0 0 62 11 4 26 44 1 1 0 0 26 26 27 0 0 1 0 0 10 19 29 26 2 0 0 164 28 0 1 164 19 0 0 80 10 1 4 77 3 0 0 2 17 12 6 0 0 0 0 0 4 11 7 21 2 0 0 164 18 0 0 164 15 0 0 80 7 0 0 78 3 0 0 4 4 1 1 0 0 0 0 0 3 2 0 1 0
0.40595239 -0.10595238 1.25 44 9 1 0 0 0 0 0 200 16 0 0 0 0 0 0 126 3 0 0 0 0 0 6 6 0 0 0 0 0 0 4 55 9 1 0 0 0 0 0 200 11 0 0 0 0 0 5 167 4 1 0 0 0 0 5 7 2 0 0 0 0 0 1 55 8 2 0 0 0 0 0 200 29 0 0 0 0 0 1 159 23 1 0 0 0 0 1 10 5 0 0 0 0 0 0 43 5 1 1 0 0 0 0 200 12 0 0 0 0 0 0 146 9 0 0 0 0 0 0 10 3 0 0 0 0 0 0 1 0
-0.044513334 -0.024858095 0.60699999 0 0 0 1 1 1 6 20 1 3 15 15 0 0 7 40 13 21 18 4 0 0 6 27 5 1 0 0 0 0 8 30 0 0 5 72 0 0 9 29 16 24 71 151 0 0 1 7 151 89 48 21 0 0 0 11 38 2 0 0 0 0 13 40 0 0 29 151 1 0 0 3 91 13 24 151 2 0 0 7 151 17 6 5 0 0 0 70 50 0 0 0 0 0 15 115 0 0 12 105 2 1 4 7 69 0 1 18 4 2 17 124 151 0 0 0 0 0 1 151 24 0 0 0 0 0 8 92 1 0
-0.32178095 -0.02475238 1.13 20 3 1 30 165 0 0 1 165 23 1 12 45 0 0 2 77 4 0 9 34 0 0 1 0 0 0 3 17 1 0 0 32 1 0 20 165 0 0 1 165 3 0 7 60 0 0 16 84 1 0 5 42 4 0 7 0 0 0 2 16 2 0 0 38 1 0 17 165 0 0 3 165 1 0 3 55 0 0 28 74 1 0 1 39 6 0 4 0 0 0 0 17 8 0 0 36 1 0 9 165 0 0 3 165 0 0 1 33 0 0 18 48 0 0 1 26 2 0 2 0 0 0 0 15 4 0 0 1 0
0.24298571 -0.012204762 1.165 1 0 0 41 76 2 0 1 36 0 1 53 32 0 1 90 36 0 1 26 20 2 4 135 12 2 6 52 7 0 0 9 14 3 1 94 120 1 0 1 135 9 2 29 26 1 1 96 48 2 1 59 130 3 3 53 45 9 4 27 21 0 0 3 28 5 1 49 135 3 0 0 135 46 1 9 33 1 0 6 56 13 1 27 135 10 0 2 56 24 1 6 27 2 0 0 11 2 0 1 131 31 0 0 135 101 1 1 19 5 0 1 39 54 2 4 109 30 0 0 17 26 0 0 29 19 0 0 1 0
0.28487143 -0.0055857142 1.173 0 4 36 6 2 80 127 0 0 0 10 11 7 129 102 7 79 0 0 3 2 23 45 149 78 0 0 2 5 1 0 149 0 33 149 6 2 12 8 1 28 21 122 21 9 38 17 7 149 20 8 1 1 8 15 125 71 3 1 4 16 2 0 39 5 5 14 0 0 1 1 6 77 12 22 1 3 5 1 2 149 33 2 0 0 0 0 5 57 18 8 17 13 0 0 1 8 5 0 0 0 0 0 1 48 3 0 0 1 2 1 7 149 47 0 0 0 0 0 3 45 17 2 9 15 0 0 0 1 0
0.26476285 0.0055857142 1.173 2 1 3 90 38 0 0 0 157 9 6 55 19 0 0 60 136 0 0 0 5 4 1 69 0 0 0 8 46 6 0 1 16 0 0 75 98 1 0 3 157 4 0 16 24 1 0 64 149 1 0 3 18 2 0 28 0 0 0 15 80 3 0 0 20 1 0 41 85 2 1 3 157 41 0 2 12 1 1 13 153 24 0 0 14 11 0 2 0 0 0 1 60 34 0 0 5 0 0 20 17 3 53 28 157 37 0 0 2 2 29 44 125 72 1 0 1 5 1 1 1 4 1 1 25 30 0 0 1 0
0.010264762 0.041662857 0.634 81 2 0 0 68 5 1 3 195 33 4 2 1 0 0 1 58 21 63 33 6 1 0 0 1 3 34 33 16 1 0 0 96 3 0 1 96 2 0 0 195 9 1 1 2 3 1 11 69 4 8 11 27 39 4 10 3 4 9 5 5 5 2 2 95 1 0 0 100 4 0 4 195 2 0 0 1 3 1 11 93 0 0 0 25 62 16 10 0 0 1 2 8 27 43 2 66 4 0 0 79 5 0 2 195 43 3 0 0 0 0 4 80 21 31 26 4 16 10 5 0 0 42 28 9 14 17 0 1 0
0.30823049 0.073857144 1.034 0 0 0 3 46 6 0 0 78 25 0 4 93 5 0 0 151 60 0 1 46 4 0 0 6 2 0 1 99 11 0 0 0 0 0 6 54 3 0 0 80 21 2 17 151 1 0 1 151 64 2 9 44 0 0 4 14 4 0 12 116 1 0 0 0 0 1 4 52 7 0 0 98 2 0 9 151 3 0 12 151 7 1 8 46 0 0 44 11 1 0 17 91 0 0 1 0 2 8 13 32 0 0 0 104 0 0 13 128 4 0 12 151 1 0 4 47 1 0 31 3 0 0 9 72 0 0 1 1 0
0.36407429 0.055293333 0.75400001 2 0 0 0 0 2 8 4 178 14 0 0 0 0 2 4 189 32 0 0 0 0 0 0 23 3 0 0 0 0 0 1 2 0 0 0 0 2 4 5 188 11 0 0 0 1 2 6 189 35 0 0 0 0 0 2 38 2 0 0 0 0 1 6 1 0 0 0 0 3 2 3 169 4 0 0 0 1 0 4 189 25 0 0 0 0 0 1 48 6 1 0 0 0 0 1 3 2 0 0 0 2 1 1 109 9 0 0 0 1 1 2 189 39 0 0 0 0 0 0 45 8 1 0 0 0 0 0 1 0
0.12439524 0.056804761 0.755 0 0 5 7 5 1 0 0 0 2 31 9 1 0 0 0 1 11 24 1 0 0 0 0 2 3 0 0 0 0 0 0 0 0 71 138 24 0 0 0 8 27 145 126 1 0 0 0 100 142 120 7 0 0 0 2 29 16 1 2 0 0 0 1 0 0 19 145 145 0 0 0 80 15 75 96 21 0 0 7 145 48 18 3 0 0 0 28 51 7 21 46 0 0 0 4 0 0 0 19 145 16 9 2 56 1 0 5 22 8 44 50 145 39 13 5 0 0 7 42 12 13 34 50 0 0 0 0 1 0
0.12439524 0.056804761 0.755 0 36 115 23 44 4 0 0 18 139 139 1 0 0 0 0 104 139 34 0 0 0 0 0 15 15 4 0 0 0 0 0 0 2 3 3 64 84 91 1 73 49 7 0 1 42 97 16 139 60 1 0 0 1 11 37 48 6 1 0 0 0 0 3 28 9 0 0 2 52 139 28 16 1 0 0 0 113 139 39 118 1 0 0 0 9 93 139 23 0 0 0 0 0 1 12 57 47 0 0 0 1 4 4 22 19 0 0 0 12 36 3 1 0 0 0 0 3 26 17 1 0 0 0 0 1 2 3 1 0
0.30164286 0.079071425 1.025 0 0 0 4 43 1 0 0 58 1 0 5 95 1 0 3 159 3 0 2 21 0 0 7 28 1 0 11 120 0 0 0 0 0 0 15 54 1 0 0 83 5 1 28 106 0 0 2 159 5 0 6 27 0 0 13 30 1 0 17 146 0 0 1 0 0 0 24 61 0 0 0 114 7 2 51 97 0 0 7 159 5 1 13 28 0 0 28 18 1 0 33 116 0 0 1 0 0 0 20 73 1 0 0 118 2 1 31 80 0 0 46 159 2 2 20 26 0 0 64 4 0 1 35 59 0 0 0 1 0
-0.1373381 0.059680954 0.755 11 8 99 13 0 0 0 15 4 39 83 5 0 0 0 0 5 20 7 0 0 0 0 0 0 4 2 0 0 0 0 0 20 48 150 29 0 0 0 2 150 150 126 5 0 0 0 8 83 36 2 0 0 0 0 0 1 6 3 0 0 0 0 0 85 17 55 2 0 0 9 100 150 22 5 0 0 0 0 143 103 14 0 0 0 0 0 13 3 6 2 0 0 0 0 0 16 0 0 0 0 0 146 150 66 0 0 0 0 0 27 150 22 1 0 0 0 0 1 26 1 3 2 0 0 0 0 0 1 0
0.12023143 0.06047143 0.74699998 3 144 144 0 0 0 0 0 54 144 63 0 0 0 0 0 25 43 6 0 0 0 0 0 0 3 7 1 0 0 0 0 46 74 18 1 0 11 17 3 144 117 5 0 0 0 1 7 130 19 1 0 0 0 0 2 0 5 5 1 0 0 0 0 24 3 0 0 0 117 144 29 144 5 0 0 0 9 63 144 103 1 0 0 0 0 0 27 1 1 1 0 0 0 1 1 4 1 0 0 0 60 125 9 18 0 0 0 0 9 88 95 13 0 0 0 0 1 2 21 1 0 0 0 0 0 1 1 1 0
-0.14930286 0.067992382 0.736 25 91 39 26 56 1 0 0 156 156 10 0 0 0 0 0 80 17 0 0 0 0 0 0 0 0 0 1 1 0 0 0 39 8 0 9 27 72 94 13 156 35 0 0 0 5 23 54 142 10 13 2 0 0 0 4 0 0 19 7 1 0 0 0 4 0 0 0 0 105 156 16 156 30 13 0 0 17 88 108 51 38 143 6 0 0 0 3 0 0 134 27 0 0 0 0 0 0 0 1 1 6 10 0 3 4 6 2 1 2 11 6 1 4 35 6 1 0 0 0 0 0 27 10 1 0 0 0 1 0
0.13158 0.066138096 0.73100001 0 1 11 7 1 2 1 0 6 7 9 1 0 1 7 7 1 0 0 0 0 10 30 4 0 0 0 0 0 6 15 0 8 22 140 99 1 0 0 0 160 82 59 10 0 0 21 50 36 1 0 0 0 21 160 46 0 0 0 0 0 64 150 0 57 19 64 64 42 2 0 6 160 47 12 2 0 0 2 25 126 9 0 0 0 3 31 15 1 2 0 0 0 24 45 0 33 0 0 2 51 10 50 93 160 1 0 0 0 0 16 157 89 3 0 0 0 0 0 11 4 1 0 0 0 0 0 1 1 0
0.28590095 0.090838097 1.0039999 0 0 0 11 21 0 0 0 41 4 0 27 88 0 0 0 166 11 0 4 25 0 0 4 31 1 0 3 124 1 0 1 0 0 0 14 40 0 0 0 63 2 0 25 121 0 0 1 166 3 0 4 31 0 0 9 40 0 0 8 156 0 0 1 0 0 0 10 46 0 0 0 68 0 0 10 126 1 0 6 166 1 0 3 31 0 0 19 35 0 0 14 152 0 0 1 0 0 0 6 42 1 0 0 63 2 0 16 86 0 0 3 166 2 0 4 25 0 0 14 22 0 0 14 114 0 0 1 1 0
-0.010378095 0.062879048 0.64099997 17 2 3 14 5 0 0 8 15 7 40 9 0 0 0 12 3 14 28 19 14 0 0 1 1 0 1 33 54 2 1 3 7 6 55 105 4 0 0 1 8 39 136 136 12 0 0 2 75 136 136 27 10 1 0 3 19 21 5 9 28 15 13 3 0 0 17 136 59 9 0 0 32 10 25 136 120 15 2 31 136 96 15 9 4 2 1 52 102 34 1 14 21 7 8 4 4 1 1 39 66 12 1 1 22 0 0 19 86 16 8 72 136 19 0 1 2 1 7 67 94 18 3 34 16 0 0 6 1 0
-0.010378095 0.062879048 0.64099997 0 42 86 10 1 0 1 0 7 130 70 3 0 0 0 2 14 71 11 0 0 0 20 9 1 2 3 0 0 3 29 3 0 6 100 83 4 6 10 0 15 130 130 37 1 5 18 8 130 130 39 0 0 0 5 21 33 13 3 0 0 1 8 2 0 1 22 16 5 53 92 16 16 11 17 10 1 15 130 130 130 33 13 4 2 1 56 130 29 10 66 9 1 0 0 4 1 4 8 1 1 6 105 66 2 5 19 1 0 1 86 130 3 1 18 15 19 7 25 48 0 2 21 13 7 7 4 0 1 0
-0.010378095 0.062879048 0.64099997 11 42 5 2 44 64 2 0 15 126 56 3 11 6 0 0 135 80 13 0 0 0 0 5 51 25 0 0 0 1 2 8 1 5 2 4 49 135 41 0 32 74 26 3 42 128 29 13 135 89 5 0 1 5 9 75 70 3 0 0 2 22 7 27 10 15 1 1 1 133 102 1 11 4 2 2 7 135 135 60 103 8 0 0 0 12 101 135 21 0 0 0 5 18 3 31 10 55 9 8 2 7 5 0 3 23 16 17 4 13 27 9 19 62 3 0 0 1 13 23 3 8 0 1 5 5 1 1 1 0
0.0092000002 0.066853337 0.64399999 0 2 125 36 2 0 0 0 2 12 125 16 0 0 0 1 3 29 119 3 0 0 1 3 0 31 52 1 0 0 0 0 19 15 125 80 39 1 0 1 125 50 125 9 0 0 6 67 24 28 51 42 6 4 28 53 1 23 84 25 1 0 1 1 54 9 5 7 113 8 0 0 125 61 18 23 3 2 1 17 20 21 95 125 12 10 9 9 1 37 95 17 0 0 5 8 34 7 1 2 113 7 0 0 125 23 2 5 4 10 13 19 22 4 10 19 12 78 104 17 1 8 10 1 0 16 76 36 1 0
0.015404762 0.07332667 0.64700001 0 29 142 0 0 0 0 0 9 120 142 0 0 0 0 0 4 32 133 1 0 0 0 0 0 3 103 1 0 0 0 0 25 46 142 0 0 0 9 4 142 142 56 0 0 0 1 3 93 36 25 0 0 0 0 5 3 4 23 0 0 0 1 8 22 2 1 0 0 26 142 22 142 7 0 0 0 11 29 43 142 7 0 0 0 0 0 3 14 2 0 0 0 0 0 2 19 27 1 1 11 48 70 13 114 0 0 1 10 36 24 44 96 1 0 0 0 0 0 8 9 2 2 2 0 0 0 0 1 0
0.2587238 0.11906666 0.94 0 0 2 14 2 0 0 0 10 6 10 76 24 0 0 0 150 20 14 32 10 0 1 40 26 0 29 109 38 3 8 27 0 0 1 20 22 0 0 0 56 10 3 108 119 0 0 1 150 21 3 25 50 1 0 16 22 1 1 32 150 23 8 2 0 0 1 26 53 0 0 0 78 3 0 52 150 3 0 8 150 15 0 4 41 4 0 10 23 2 0 0 136 24 1 0 0 0 1 17 56 0 0 0 52 0 0 10 112 7 1 13 150 10 0 0 17 3 0 14 25 2 0 0 107 16 0 0 1 0
-0.01552381 0.087554283 0.65200001 98 5 0 6 41 2 0 0 13 2 1 22 148 12 1 2 148 15 1 3 22 2 1 6 35 9 2 5 2 0 0 0 129 7 1 9 54 1 0 0 22 10 6 74 148 5 0 0 148 32 7 16 22 1 0 3 46 7 2 3 2 0 0 1 126 5 1 11 71 0 0 0 39 2 1 41 148 10 0 7 148 7 1 5 25 3 0 15 44 4 1 2 2 0 0 0 87 2 0 3 52 3 0 4 19 0 0 5 148 53 4 10 148 6 0 1 10 10 3 23 31 7 2 1 1 0 0 0 1 0
-0.01552381 0.087554283 0.65200001 0 0 0 0 54 24 2 0 27 39 5 12 141 25 1 1 141 95 2 3 7 1 0 1 22 4 0 0 122 33 1 0 2 0 0 0 50 22 1 1 38 11 0 4 141 62 1 1 141 48 0 2 26 6 1 4 58 4 0 0 116 41 1 1 4 0 0 0 30 12 1 2 19 1 0 0 141 91 5 8 141 30 0 0 24 22 7 24 73 15 0 0 75 29 1 1 7 0 0 0 9 10 3 6 3 1 0 1 140 59 1 1 141 39 1 1 41 12 1 3 87 15 0 0 33 13 0 2 1 0
-0.029095238 0.087285712 0.64999998 144 2 0 13 24 0 0 24 21 5 47 94 40 0 0 2 31 53 95 35 5 0 0 4 9 12 7 9 4 0 0 1 144 1 0 10 35 0 0 43 36 5 8 90 144 0 0 2 144 27 14 22 30 0 0 25 31 5 2 8 3 0 0 6 144 1 0 16 39 0 0 32 40 2 0 54 144 1 0 2 144 11 0 4 33 1 0 10 27 2 1 10 5 0 0 1 105 0 0 16 52 0 0 15 36 2 2 60 144 1 1 9 144 6 2 4 10 0 1 28 14 2 2 12 7 0 0 1 1 0
-0.029095238 0.087285712 0.64999998 5 0 0 0 30 8 2 7 31 3 1 6 146 17 2 6 146 11 1 2 15 3 1 28 30 1 0 1 146 7 0 4 6 0 0 0 32 7 1 7 43 5 0 1 146 48 0 2 146 22 0 0 28 7 0 16 38 1 0 2 146 5 0 5 5 0 0 1 23 5 1 8 26 1 0 7 146 47 10 11 146 6 0 0 35 12 9 51 43 0 0 4 146 5 0 5 4 0 0 0 6 7 3 9 4 0 0 2 37 52 73 26 42 0 0 0 9 8 55 98 14 0 0 0 146 16 1 8 1 0
-0.032910477 0.088796191 0.65200001 2 0 0 0 77 33 0 2 91 25 0 0 138 64 0 1 138 50 0 0 14 4 0 4 21 2 0 0 138 38 0 1 2 0 0 0 59 22 1 5 62 11 0 1 138 89 5 11 138 43 0 0 19 11 3 30 32 3 0 0 138 43 0 2 4 0 0 0 25 20 5 8 10 0 0 1 78 90 107 53 102 1 0 0 7 9 59 138 15 0 0 0 138 53 2 9 14 1 0 0 0 2 3 7 21 2 0 0 0 6 36 24 11 0 0 0 1 3 23 34 1 0 0 0 103 40 4 2 1 0
0.019456191 0.098536193 0.65899998 0 0 0 10 72 1 0 0 23 0 0 56 161 0 0 3 161 0 0 9 51 1 0 43 27 0 0 0 18 23 6 8 0 0 0 12 99 20 1 0 48 1 0 43 161 63 5 7 161 17 2 7 38 12 6 37 21 5 5 9 12 7 1 5 0 0 0 0 26 69 18 0 10 0 0 0 110 161 79 12 84 13 1 1 7 59 161 78 7 5 6 9 2 21 81 7 0 0 0 0 9 15 4 0 0 0 0 0 40 69 19 0 1 0 0 0 8 24 78 7 2 0 0 0 0 12 75 5 1 0
0.019456191 0.098536193 0.65899998 0 24 81 3 1 0 0 0 6 25 85 6 1 0 0 0 48 62 20 0 0 0 0 0 14 13 2 0 0 0 0 0 2 24 60 5 8 5 8 10 8 60 155 73 90 10 2 1 123 155 74 13 9 0 0 1 28 70 15 0 0 0 0 0 12 7 1 9 25 4 4 7 44 11 6 60 155 9 2 12 155 57 5 9 37 0 0 69 86 22 2 0 0 0 0 15 21 18 3 15 39 0 0 1 69 0 0 62 155 0 0 22 155 0 0 3 11 0 0 88 53 0 0 0 0 0 0 14 1 0
0.3173762 0.14173238 0.91299999 15 0 0 0 0 0 2 19 153 0 0 1 10 0 1 29 60 0 0 17 153 0 0 6 0 0 0 16 96 0 0 0 26 0 0 0 0 0 0 20 153 1 0 2 20 0 0 28 61 1 0 24 153 0 0 5 0 0 0 21 126 0 0 0 23 0 0 0 0 0 0 18 153 3 0 2 24 0 0 13 54 2 0 21 153 1 0 1 0 0 0 27 126 0 0 0 19 0 0 0 0 0 0 7 153 7 0 0 19 1 0 4 43 2 0 4 153 4 0 0 0 0 0 14 108 0 0 0 1 0
-0.018924762 0.10927524 0.64099997 12 6 37 6 0 0 0 0 0 1 58 16 3 0 0 0 0 5 23 13 38 4 0 0 6 3 0 1 142 32 0 0 2 11 153 58 7 0 0 0 12 44 153 19 0 0 0 1 85 128 104 5 10 2 0 1 13 8 1 1 150 36 0 0 9 7 62 33 77 30 1 4 96 26 74 1 0 1 1 28 153 35 9 0 3 0 0 28 33 2 0 0 124 25 0 1 5 0 0 0 84 43 1 2 111 7 0 0 4 3 1 12 153 1 0 0 1 0 0 20 22 0 0 0 72 16 0 2 1 0
-0.018924762 0.10927524 0.64099997 0 0 80 64 2 2 4 0 85 50 73 32 1 3 8 6 153 82 4 0 0 0 2 8 24 8 0 0 0 0 6 4 0 0 6 7 1 6 91 11 89 7 0 2 1 18 94 25 153 50 0 0 0 0 10 37 47 21 6 0 0 0 0 1 0 0 0 0 0 2 153 12 10 0 2 0 0 8 153 46 106 6 11 3 0 0 84 131 21 11 46 10 0 0 0 5 0 0 48 19 0 0 38 2 0 0 102 36 0 0 39 4 1 0 138 55 0 0 14 9 0 0 131 51 0 0 9 5 1 0
-0.42732856 0.21695143 0.76700002 67 2 0 0 0 0 0 13 182 5 0 0 0 0 0 15 157 3 0 0 0 0 0 3 24 4 0 0 0 0 0 1 67 11 1 0 0 0 2 9 182 12 0 0 0 0 0 9 182 0 0 0 0 0 0 9 27 2 1 1 0 0 0 1 57 11 3 8 6 1 1 2 182 8 0 0 0 0 0 8 182 2 0 0 0 0 0 4 19 5 1 1 0 0 0 0 56 6 4 11 2 0 0 3 182 4 0 0 0 0 0 9 137 3 0 0 0 0 0 2 11 6 1 1 0 0 0 0 1 0
-0.32577333 0.22684 0.74199998 26 1 0 20 113 0 0 2 177 1 0 1 3 0 0 35 150 0 0 0 0 0 0 19 5 0 0 0 0 0 0 3 47 3 1 34 115 0 0 4 177 5 0 1 0 0 0 19 175 14 0 0 0 0 0 6 8 3 0 0 0 0 0 3 48 1 0 7 97 8 3 19 177 8 0 0 0 0 0 51 129 42 0 0 0 0 1 20 18 6 0 0 0 0 0 3 47 2 0 7 58 3 1 6 177 1 0 0 0 0 0 53 73 1 0 0 0 0 2 51 8 0 0 0 0 0 0 8 1 0
0.074317142 0.22964667 0.70300001 0 0 0 0 51 6 0 0 36 0 0 0 161 8 0 6 161 0 0 0 15 2 0 33 72 0 0 0 0 0 0 16 0 0 0 0 61 12 0 0 60 0 0 0 161 13 0 4 161 1 0 0 15 1 0 29 85 0 0 0 0 0 0 27 0 0 0 0 48 23 2 0 60 0 0 0 161 28 0 4 161 2 0 0 14 3 0 9 107 1 0 0 0 0 0 7 0 0 0 0 35 20 2 0 40 2 0 0 153 31 0 1 161 14 0 0 14 3 0 3 80 6 0 0 0 0 0 1 1 0
0.053537142 0.23596001 0.69400001 0 0 0 13 63 0 0 0 47 0 0 20 160 1 0 4 160 1 0 1 13 0 0 22 61 2 0 0 0 0 0 6 0 0 0 24 87 0 0 0 69 4 0 23 160 1 0 3 160 14 0 1 10 0 0 8 77 9 0 0 0 0 0 0 0 0 0 16 94 0 0 0 72 3 0 7 160 5 0 2 160 10 0 0 9 1 0 3 70 13 0 0 0 0 0 0 0 0 0 5 67 3 0 0 54 3 0 0 146 13 0 1 160 14 0 0 8 1 0 2 54 9 0 0 0 0 0 0 1 0
0.24578381 0.27263904 0.61299998 18 1 0 0 5 24 12 12 182 3 0 0 2 5 3 69 141 1 0 0 44 16 0 17 0 0 0 1 97 18 0 0 34 1 0 1 2 8 7 11 182 3 0 0 0 2 2 42 163 3 1 12 62 4 0 11 0 0 0 11 125 5 0 0 33 0 0 0 1 1 8 32 182 29 1 0 0 0 1 46 117 31 5 29 40 0 0 2 0 0 0 11 91 5 0 0 16 0 0 0 0 0 2 29 182 19 0 0 0 0 0 38 76 24 3 12 13 0 0 3 0 0 0 12 44 1 0 0 1 0
0.29174 0.27202001 0.60900003 71 36 36 27 3 0 0 1 120 84 45 23 3 0 1 7 41 60 76 21 5 12 13 2 12 63 24 1 0 24 25 2 70 7 2 8 15 17 6 19 120 6 3 10 21 13 2 24 75 46 50 48 88 52 6 19 120 77 16 9 3 9 10 27 26 1 0 5 23 20 6 23 120 23 3 25 32 8 1 15 60 64 23 120 96 15 2 9 107 116 61 100 2 1 1 14 2 0 0 1 1 0 0 0 37 3 0 15 24 0 0 8 8 36 34 94 91 0 0 1 6 64 120 120 3 0 0 0 1 0
-0.028757144 -0.17097428 0.54900002 13 1 1 18 9 0 0 2 145 9 1 4 3 3 5 87 69 17 19 71 82 25 10 35 13 3 16 68 65 2 0 2 42 3 3 29 9 0 0 3 145 36 8 7 8 3 3 62 70 13 13 53 145 24 6 20 20 1 1 16 114 4 1 8 37 5 1 6 10 4 1 9 145 129 40 6 2 1 15 62 21 43 76 97 69 27 57 17 18 1 0 20 68 20 14 10 36 7 3 9 2 0 0 19 145 38 1 1 0 1 21 120 21 20 6 23 18 39 61 25 1 0 1 32 72 36 11 1 1 0
-3.3786285 -1.4878857 5.6399999 2 1 11 56 32 1 0 1 133 10 8 3 1 0 0 12 186 4 0 0 0 3 11 51 28 0 0 0 0 6 17 16 3 0 0 1 55 5 0 1 178 11 0 0 1 1 0 7 186 19 0 0 0 0 0 14 49 1 0 0 0 0 0 3 2 1 0 1 55 4 0 0 180 6 0 0 2 0 0 8 186 14 0 0 0 0 0 22 27 1 0 0 0 0 0 1 2 0 0 1 46 4 0 0 136 9 0 0 2 0 0 1 186 46 0 0 0 0 0 1 4 2 0 0 0 0 0 0 1 0
-3.3446515 -1.3368038 5.5479999 0 0 0 0 0 0 0 0 1 0 0 0 0 0 0 0 1 1 0 0 0 0 0 0 0 0 2 1 0 0 0 0 41 1 0 0 0 0 13 24 149 37 12 1 0 0 0 22 71 45 147 26 0 0 0 5 0 4 149 95 0 0 0 0 38 18 23 9 0 1 14 13 149 149 98 18 4 3 2 11 14 37 149 141 6 1 0 1 0 0 149 139 0 0 0 0 57 11 22 5 0 0 0 20 77 11 12 10 42 48 14 57 0 1 45 45 75 51 4 1 0 0 40 12 1 2 4 2 1 0
-3.3446515 -1.3368038 5.5479999 7 0 0 1 2 67 74 7 31 4 0 1 9 12 50 21 1 1 0 1 28 31 35 1 0 0 0 0 0 1 1 0 19 17 92 55 14 55 36 6 112 15 7 3 3 22 159 137 10 0 0 0 1 73 169 32 0 0 0 0 0 1 4 0 90 36 52 15 1 0 0 2 169 49 3 0 0 2 18 49 112 2 0 0 0 19 81 47 0 0 0 0 0 0 1 0 80 9 0 0 2 1 0 2 169 64 0 0 0 0 0 3 169 19 0 0 0 0 1 9 0 0 0 0 0 0 0 0 1 0
0.24675809 -0.25946668 1.112 0 0 81 26 0 0 0 0 0 5 125 32 0 0 0 0 0 13 122 28 0 0 0 0 0 0 99 37 0 0 0 0 0 0 125 70 3 5 6 0 12 38 125 110 10 16 5 1 100 114 102 21 3 8 13 17 7 1 37 26 5 29 59 7 0 0 14 12 3 34 122 6 22 6 10 19 11 125 94 11 125 33 3 1 1 34 36 59 45 11 1 2 6 43 77 16 0 0 0 0 0 11 66 7 1 0 0 0 0 114 72 4 104 25 0 0 0 58 53 36 40 25 4 6 5 3 15 19 1 0
-0.041433334 -0.12860475 0.565 52 1 0 1 111 8 0 3 163 19 6 3 1 2 6 7 27 9 71 17 5 8 47 3 1 4 76 3 0 2 52 0 61 2 0 0 156 14 0 1 163 15 2 3 3 7 3 11 38 4 17 28 22 55 7 6 10 7 34 6 2 8 6 2 52 1 0 0 163 17 0 1 163 21 3 7 3 5 3 8 44 8 18 59 19 37 51 5 1 2 37 13 2 10 87 0 36 4 1 4 163 7 0 0 163 22 3 2 1 3 3 6 41 7 40 14 5 24 32 5 0 6 48 1 0 5 47 0 1 0
-0.34868571 -0.24171428 1.08 61 0 0 0 31 7 0 4 151 0 0 0 0 0 0 15 119 0 0 0 0 0 0 38 74 0 0 0 3 0 0 28 78 3 0 2 48 4 0 2 151 25 3 0 1 0 0 34 111 39 30 0 0 0 0 85 33 27 28 1 3 0 0 57 66 11 0 5 46 1 0 1 151 108 17 0 1 0 1 14 39 104 151 0 0 0 13 27 46 107 91 1 0 0 3 38 52 1 0 0 32 6 0 4 151 4 0 0 1 0 1 40 45 3 4 0 0 0 19 85 75 4 1 0 0 0 4 83 1 0
